VERSION .7
FIELDS x y z
SIZE 4 4 4
TYPE F F F
COUNT 1 1 1
WIDTH 833
HEIGHT 1
VIEWPOINT 0 0 0 1 0 0 0
POINTS 833
DATA ascii
0.053936079118317666 0.42694802888883576 -0.30246041737002566
0.05415530148568702 0.42868335261215224 -0.2999563478117594
0.05437269768624234 0.4304042207366484 -0.2974421634482385
0.05469203901125827 0.4329320676155291 -0.2954786223286682
0.05532291319699558 0.43792595101381115 -0.29516310058557027
0.05438631744459434 0.43051203222531026 -0.28653359095858877
0.05312410385392338 0.4205205828396124 -0.27636253570855085
0.0533243457815916 0.42210566091195995 -0.2738965266635423
0.052888133823367676 0.41865268771135156 -0.2682028567572373
0.05191462659801936 0.41094658452836463 -0.25990146013688625
0.0521029084893889 0.4124369891649224 -0.2574917662123309
0.05154091399085668 0.40798834463389616 -0.251422032432494
nan nan nan
0.043073365149259135 0.3409607937526118 -0.2046715102467345
0.04322159955677794 0.34213418991225525 -0.20267238142679928
0.043368376492016206 0.34329604899082955 -0.20066641830686152
0.04318733928748032 0.34186299195561975 -0.19716379026913125
0.04343925006704403 0.343857071105397 -0.1956510866892395
0.04358091320961179 0.3449784503467917 -0.19363515775393675
0.04383095737572686 0.34695775372966825 -0.19209413200439268
0.043970025149809897 0.3480585885140518 -0.19006011443241322
0.04410761021400971 0.3491476864411703 -0.18801968785772993
0.04446548135643677 0.3519805282300636 -0.18690511809334304
0.045156880553883394 0.35745351642925416 -0.1871465475097122
0.045515440463468386 0.36029181037160857 -0.18596276464114914
0.04654511761688613 0.3684425443187166 -0.1874557299820258
0.04668076378368245 0.3695162942925137 -0.1852960379663143
0.04670229826627586 0.3696867572747455 -0.18268987357341843
0.04683447317589274 0.3707330294185862 -0.180522979408148
0.04628605772411627 0.366391874110754 -0.17577145118590431
0.04641320439961657 0.3673983436831072 -0.1736239589523822
0.047335293218970204 0.3746974282721048 -0.1744053164420694
0.04803187722529737 0.3802114584596619 -0.17427905450215725
0.04770035004734538 0.3775871506222461 -0.17041601072432797
0.04782357516883702 0.37856257789820796 -0.16820308170183487
0.04794518763517753 0.3795252396941922 -0.16598448071598096
0.048065183345482154 0.38047510354835357 -0.16376028258004177
0.04933903817659426 0.39055870284078203 -0.16540419322914826
0.050501041146581056 0.3997569034832597 -0.16655345632241686
0.0514341368283497 0.40714311635983697 -0.1668472428339663
0.05225296087733251 0.4136247761214427 -0.16668885240002668
0.05260668614477321 0.4164247999305648 -0.16499674873093476
0.05272588438524944 0.4173683511610261 -0.16255659039560497
0.051320103867051804 0.40624045252423086 -0.155495774968026
0.0496710267432907 0.3931866629461827 -0.14787171412978944
0.0497778108199821 0.39403194595164737 -0.14556785969333375
0.05118010535381794 0.4051322501808338 -0.14698450277359057
0.053176954801943 0.4209389411713773 -0.149942017308945
0.053285186540996 0.4217956836044067 -0.1474756910787218
0.05398486467864128 0.42733420636333697 -0.14661555985056926
0.05409066178853332 0.4281716767221195 -0.14411185757285014
0.054313742462123914 0.42993754208403734 -0.1419145077288875
0.054774112272533405 0.43358174437547725 -0.14031272105485348
0.05427753915714387 0.4296509634162297 -0.13627176859058238
0.052459474892551435 0.41525950287905933 -0.12904085834943185
0.05255250679171135 0.4159959261901231 -0.1266081268483686
0.052042810896655974 0.41196126773359626 -0.12275364872788805
0.05213127396770803 0.41266152504618797 -0.12034032813552033
0.052217979124024476 0.4133478670307916 -0.11792294955607467
0.052423713858141464 0.4149764251433034 -0.11576833840397499
0.052144135417352556 0.4127633339033416 -0.11255405098961023
0.05295220753738306 0.41915988338351834 -0.11166942959035342
0.05424614733611322 0.42940247156566597 -0.11171333913900101
0.05432653808178116 0.43003882984318437 -0.10919811956372162
0.054770230693665066 0.4335510185149048 -0.10739518353080584
0.054969355166952914 0.4351272510250077 -0.10508877163652672
0.05504491233549609 0.4357253475997915 -0.10254015604212438
nan nan nan
nan nan nan
nan nan nan
0.06735116990997955 0.5331394069884655 -0.11237090305430274
0.06743181827623952 0.5337778045429534 -0.10924848963148104
0.06751019277926973 0.5343982026165783 -0.10612239224862634
0.06721696421666887 0.5320770595364203 -0.10242991068150566
0.06729037975651801 0.5326582033744742 -0.09931388289534537
0.06674466300210803 0.5283384104559744 -0.09531360492851987
0.06681290723284068 0.5288786191672977 -0.0922195798172433
0.06786786753445553 0.5372294898403843 -0.09044033960385729
0.06719010869181896 0.5318644761676089 -0.08634031296278269
0.06576559099459484 0.5205882574863636 -0.0813865618617962
0.06582371558205136 0.5210483609727534 -0.07833813399501642
0.06587962053298707 0.5214908942268814 -0.07528706449396168
0.06593330396223539 0.5219158423261172 -0.07223345624351522
0.06548770269961808 0.518388545128123 -0.06865630072606688
0.06479042218074642 0.5128690014760571 -0.06487385711304827
0.06284539977256211 0.4974725637502587 -0.05997081979693389
0.06351063989358871 0.5027384815376275 -0.05762298216918003
0.06355150728375897 0.5030619802413568 -0.054679431508832955
0.0635902316583721 0.5033685152302048 -0.05173403700752308
nan nan nan
0.06553363405372188 0.5187521292339642 -0.04718629238445357
0.06556687147577672 0.5190152305209623 -0.044149188194135054
0.06559789792233138 0.5192608301347362 -0.0411105952523899
0.06487669494883257 0.5135519207553833 -0.03763552452845691
0.06452782793098433 0.5107903539516879 -0.03442884957343921
0.06455179739968857 0.5109800918337155 -0.03143856155438712
0.06419816708629093 0.5081808196632402 -0.028281824743044578
0.06409248926146559 0.5073442935429885 -0.025257583652822116
0.06410979119061676 0.50748125241482 -0.022287620405183846
0.064250173666349 0.5085924941343551 -0.01935463344210585
0.06451371221856265 0.5106786165823183 -0.016441312815041444
0.0647751757156368 0.5127483132774989 -0.01350422367716996
0.06453329301822312 0.5108336145717117 -0.010462197740249781
0.06416386409835548 0.5079092835537669 -0.007428534593812714
0.06441884252794416 0.5099276456538975 -0.004472969334492969
0.0647970125934989 0.5129211699647612 -0.001496922166773995
0.06479700955113836 0.5129211458819978 0.0015052824861069777
0.06304022309156772 0.4990147491183971 0.004385378158043198
0.061406806924467414 0.48608492877738185 0.0071172624538673405
0.06140059160870446 0.4860357294870869 0.009962246637420236
0.06126701326978942 0.48497834805643236 0.01278075792271379
0.06138194980250512 0.4858881643963009 0.015651111271868377
0.06149476625219382 0.48678119855095575 0.01853254389188019
0.061480241371452894 0.48666622228083095 0.021381410945822944
0.06183918382731082 0.48950754438874466 0.02437759866430726
0.06182039908812797 0.48935884786689116 0.027242324745481782
0.06154933239789687 0.4872131340704227 0.029984246581679176
0.06090119986989933 0.48208263682607794 0.03250175347080766
0.06100152339346453 0.48287677928762734 0.03539541665957514
0.061099680586258386 0.4836537734753707 0.03829946744953007
0.06082099719578995 0.48144776728824046 0.040961476129806954
0.06103981191157744 0.4831798641170144 0.043958537797433354
0.06100678957386736 0.48291846539791783 0.046785897183184724
0.0613457722232555 0.4856017893686183 0.04991604716671754
0.061433017809960376 0.48629240930024487 0.05286471114993815
0.06139350689835555 0.4859796482300107 0.05571013841482349
0.061476370235423926 0.4866355790838439 0.05867245570941934
0.062178778550693876 0.49219571342400925 0.062266999164680495
0.06287799879912466 0.4977306116165866 0.06592858008561742
0.06270478929260649 0.49635951719145216 0.06870468890245472
0.06265372854687801 0.4959553297699944 0.07160877289728532
0.0626005550595211 0.49553441827647676 0.07451044217811614
0.06266912105125554 0.4960771739883929 0.07756288326037554
0.06224040354616653 0.4926835254929885 0.07998810524653381
0.061933893237780986 0.49025724656914893 0.08254097258026218
0.062243273655500475 0.4927062447477592 0.08592054144550815
0.0624264325577431 0.4941560967496889 0.08915534032538631
0.06236049244927005 0.4936341270441134 0.0920461826703877
0.06204623743333415 0.49114654244739225 0.0945586930610818
0.061976371156018555 0.4905934939152537 0.09743182907775569
0.06165875838341768 0.488079329937661 0.09990365033379138
0.06133965310695999 0.48555335157551927 0.10234935139265906
0.061141601994626864 0.48398561559225695 0.10497924201559566
0.060819420208308564 0.48143528414694126 0.10737818247874067
0.06049581651179955 0.4788736971234836 0.10975082281488689
0.06163542173819622 0.48789460136930657 0.11482564141246873
0.06155081203119635 0.4872248465740198 0.11767940177944457
0.06292466345309843 0.4981000003886027 0.12339325977225511
0.06283379646613925 0.49738071412220236 0.1263066089164564
0.0628621646317038 0.4976052712752058 0.12946562931137975
0.06240336192457922 0.49397347388359353 0.13160931876435197
0.062185542062808775 0.49224925213525833 0.13423721786474768
0.06196600539129826 0.490511440438479 0.13684937967141986
0.06186536115641055 0.4897147592854038 0.1397180853313709
0.06236460513557147 0.4936666823083916 0.14397176709673318
0.06225877048151218 0.49282891475692353 0.14685882061929276
0.06299070889940608 0.4986228039289988 0.1517644390507319
0.06383735325874612 0.5053246841230917 0.15703740895685073
0.064200199297144 0.5081969062685736 0.16119317411534761
0.06372379850810175 0.5044258057145922 0.16324785491581245
0.06360391173296466 0.5034768041710735 0.1661975576706183
0.06360076566039428 0.5034519004423522 0.16945841557816768
0.063595006761956 0.5034063140672024 0.1727245564040166
0.06346822498166368 0.5024027329378422 0.17566813218967314
0.06333930299417045 0.501382210324029 0.17860578428356746
0.06273654088066927 0.4966108568913171 0.1801826540955096
0.0620159594054836 0.49090686717768867 0.18136559511417338
0.06188291527032212 0.4898537144051669 0.18423586468280573
0.061747784386068275 0.48878404331269415 0.18709992164781833
0.06184438450462977 0.48954871198873534 0.19067856210681233
0.06170456525219806 0.4884419286407008 0.19354072523501997
0.06191179436295696 0.49008231596238233 0.1975101488040771
0.061302587436298434 0.4852599465804383 0.19886873559492682
0.0605776805112271 0.4795217174053413 0.19979556840830687
0.06066233888635927 0.48019185744856396 0.2033736355749789
0.0609743547145993 0.48266171704953664 0.2077517227693647
0.060822124224947816 0.48145668864265323 0.2105732877592122
nan nan nan
0.6319964819044791 5.002767287215676 2.2579915789557763
0.6303424519461792 4.9896742919152555 2.2872352103980473
0.6286671662578651 4.976413040186476 2.3164017141552615
0.6183462641563138 4.894714687606089 2.3132262612609855
0.6087305408690079 4.818598400123459 2.3117524949328265
0.5982352127696643 4.735519323597955 2.3059864743269536
0.5874314680204095 4.649998877901599 2.2980062044072325
0.5760987981489396 4.560291558742229 2.2868767505590304
0.5744246879220236 4.54703961174852 2.3135300398540872
0.5635835967520788 4.4612235386917725 2.3027293653008543
0.5509983089902677 4.361600727936157 2.2836277971159475
0.5457786419569969 4.320282808878259 2.294202573741196
0.5342612841234028 4.229113533961678 2.277510563542236
0.5296193122544185 4.19236854300168 2.2893640209491046
0.5183870933863435 4.1034563754106195 2.271977178670675
0.5133303746864355 4.0634283252285694 2.2808744085951687
0.5116616912897161 4.050219336019212 2.304619608402342
0.5009467270651581 3.9654016605397993 2.2870651986547568
0.49623800217880604 3.9281282650377327 2.296189554595961
0.4861303214434755 3.848117733365225 2.2796203352535764
0.4818786143160612 3.8144620059349816 2.2898246117999537
0.47129740254687946 3.7307030901599334 2.269228713430043
0.4652537221193877 3.6828624334430957 2.2696393567670343
0.45922553518563747 3.635144420357787 2.269567460494347
0.45756599325807235 3.6220077933278914 2.290806061988972
0.45091959556316763 3.569396138171683 2.286755742250263
0.44440006608245913 3.5177887483396364 2.2827089099723765
0.43800677572572805 3.4671806440699044 2.2786820473397222
0.4319482827989205 3.4192227343474872 2.275793821766452
0.42559632964518906 3.368941847732968 2.270754038298047
0.419681570911786 3.3221217113074073 2.2674461223091
0.4141995682054904 3.278727191570779 2.2659292743563078
0.4125434333211897 3.2656175340653624 2.285081791153341
0.4068743662962513 3.220742247772738 2.281730945754649
0.4019390748645163 3.1816753933922235 2.281991132106887
0.39772907259441054 3.148349793900718 2.2859628746971077
0.3935269285164821 3.115086398405417 2.289621944682937
0.3908455261261063 3.0938609129058614 2.301877465123066
0.3815329648784225 3.020144400070673 2.2744581853787933
0.37647233402131663 2.980085381975649 2.2715888585032595
0.3748127161703877 2.966948153950444 2.2889932992019832
0.370762513294502 2.9348874969148087 2.2916228551000564
0.3653403086422288 2.891966327516462 2.2853168688680503
0.3610199433627856 2.857767114850453 2.28542360502666
0.35768912345465137 2.831400960365215 2.2914684638645655
0.3533889927703554 2.7973619210127776 2.2909759392629003
0.34900494791976394 2.7626586326366565 2.289527890934181
0.34473135938562016 2.7288296960368705 2.2883909786675423
0.3430600480600934 2.715599904629009 2.3043245111675255
0.3385148696374105 2.679621112691694 2.300726638632488
0.3342713819596965 2.646030448905406 2.298744409879851
0.329947850733472 2.6118061751900963 2.29579008888684
0.3259218998950128 2.5799374927982432 2.294497984009609
0.3222830394016807 2.551132946000885 2.2955747686434704
0.3178165686045988 2.5157771890738667 2.290359609682678
0.3129985494903146 2.47763864067327 2.2821102027253533
0.3113323443654265 2.4644492690054687 2.2965735945041743
0.3072758063105319 2.432338463864247 2.293198842580626
0.3036898969559655 2.403953068490073 2.292962682190684
0.3002053048306122 2.37636968156761 2.293163712054054
0.29682074284499815 2.34957811473458 2.293815310046386
0.29344543461280853 2.3228597989025306 2.294231220763645
0.2899015403349651 2.2948069871066172 2.2930038792044294
0.28619241395002587 2.2654462285042816 2.2901098397737956
0.2845208386250155 2.252214347325325 2.3033311130546674
0.2809155830884652 2.2236758111519017 2.3007163310410053
0.2775846214751278 2.197308534954478 2.3000068433659466
0.27417779704979134 2.170340742765191 2.298342275033057
0.2708686890469748 2.1441464557076624 2.297168345266845
0.26774129729569707 2.119390600895855 2.297230420548136
0.2645381689224157 2.094035228988854 2.296344215308297
0.26117686711898586 2.067427785456914 2.293758891893756
0.25950305777469884 2.0541782201944594 2.3058210817024256
0.2561566045317684 2.027688315121761 2.3028471219736937
0.2528232869964661 2.0013023898817006 2.299641324893812
0.2497496325501447 1.9769719096392715 2.298471563031243
0.24676779657820566 1.953368247461743 2.2978542779949
0.2437953249178251 1.9298387114429414 2.2970386000137797
0.2409932897123862 1.907658318885764 2.2975592008211754
0.2383585018262402 1.886801825182124 2.2994390410673198
0.23668094317760768 1.8735225811197609 2.3104439131169023
0.23373537188881882 1.8502059834682856 2.308923820683009
0.2306436795864976 1.8257327188931722 2.3056460729183206
0.22779751318620395 1.8032029919578987 2.304515551454616
0.22511489911235652 1.7819679149960357 2.304777045800024
0.22228669878348345 1.7595804041599907 2.3032834827430944
0.219620067386764 1.738471843114889 2.303197556834912
0.21703639214857381 1.7180199476811406 2.303741844901356
0.2153560614048128 1.7047187602263334 2.313758747027287
0.2124822429572086 1.6819701447977362 2.3107971281898636
0.20954649190695027 1.6587312823385916 2.3068380242886564
0.2069155486577542 1.637905222070129 2.3059376063775874
0.20414828994683368 1.6160001138129787 2.3032387343594682
0.20153550712065232 1.5953178080950259 2.3020010910686657
0.19928730271405343 1.5775214377316749 2.304714823453249
0.19697139468523356 1.5591891380140137 2.306471739271765
0.19528941541988595 1.5458749011671578 2.315558942599138
0.19269910691748154 1.5253704980404579 2.3137408118309173
0.1901180442528328 1.5049392832557686 2.311760900933137
0.18747823126312937 1.4840430117615686 2.3087808153359393
0.18518690888416314 1.4659053275019749 2.3098467361307464
0.1830341975756911 1.4488648628456053 2.3124691388002097
0.1805524214128079 1.4292195816496567 2.3107274786577694
0.17794799778812484 1.4086034458250505 2.3071307812661743
0.17626585961295985 1.395287951077464 2.3153365802158943
0.17380444872459624 1.3758038776288353 2.3131720316354207
0.17135215849340585 1.3563920016158733 2.310857820909429
0.1689723248468239 1.3375536785286022 2.309258461735492
0.16672573426632217 1.3197700829142207 2.309249716781315
0.1644848733047297 1.3020318419036516 2.3091109267715177
0.1621885639946778 1.2838546820197256 2.3079704375637724
0.1600814630021595 1.2671752601905653 2.309320563070556
0.1583980323341348 1.2538495343084983 2.3166985316444357
0.15623420995113213 1.236721116440712 2.31695338161839
0.153899138321645 1.2182371212037428 2.3144357351360343
0.1515730353980303 1.1998241205840414 2.3117803800127064
0.1492560087986453 1.1814829664686237 2.3089878521675193
0.14706177636196474 1.1641138282390977 2.307841580287091
0.14493042487090507 1.1472424439476845 2.307464281305601
0.1428045835533882 1.1304146771711405 2.306967332449037
0.1411231568710497 1.1171048144692053 2.3135448671939103
0.1391660162427052 1.1016124511534195 2.3155360565166636
0.13715720107518758 1.085711041740766 2.3165197218515616
0.1350987853126882 1.069417003189967 2.316488923484102
0.13309726362623459 1.0535733276247659 2.3172547309565497
0.13104764421535017 1.0373489193668026 2.3170019455421245
0.12900289309226634 1.0211630475748654 2.3166375890507855
0.1269631033887721 1.0050164494629747 2.316162104634211
0.12458147188226468 0.9861638948489787 2.3091461457593323
0.122898766702026 0.972843911794075 2.314879329369797
0.12034405691045494 0.9526213014797142 2.3039197514265792
0.11833243331322 0.9366976610567299 2.302979881647392
0.11693551979153963 0.925639951924754 2.313988157392266
0.1152956193118204 0.9126588029640726 2.3202967669286982
0.11333186449513727 0.8971140829564389 2.3200091073408022
0.11141725815247085 0.8819584131809941 2.3205516651501883
0.10946154947704399 0.8664773849397195 2.320059603650858
0.10777115637268107 0.8530965456990355 2.325092066024254
0.10577758820963822 0.8373158287544546 2.323466532903794
0.10379004046654841 0.8215827683409762 2.3217351182078985
0.1019742648297471 0.8072094241582063 2.323673313726067
0.10011844331004432 0.7925190841713404 2.324575988565258
0.09810458332788115 0.7765777409387978 2.32159486919201
0.09617714857212453 0.7613205238174546 2.3204045000982507
0.09417744688792302 0.7454912550535417 2.317211670697074
0.09248938421620342 0.7321288630867379 2.32153603704982
0.09050000982478609 0.7163813432628673 2.318143953592489
0.08855528590488822 0.7009872683151505 2.3156026924904736
0.08672496592187208 0.6864987937771637 2.3158340730311244
0.084932480892769 0.6723098137382271 2.3169337827820837
0.08303786990412478 0.6573124234878472 2.3150613498020207
0.08125020774141621 0.6431616203674853 2.3159806554056197
0.07943093092365332 0.6287605614836327 2.3158480074142274
0.07774410936393594 0.6154079939299425 2.3194891602194203
0.07583293344909658 0.6002794787868503 2.3162793806574116
0.07402197404970252 0.5859442590488175 2.315877927285349
0.0723352219117101 0.572592241024665 2.3192684714433778
0.0705573529210939 0.5585189588437143 2.3196654140653417
0.06869479402563569 0.5437752870361879 2.31705646506596
0.06692284589681383 0.5297488733023645 2.317276755960927
0.06523519538097693 0.5163897438853158 2.3203383592654143
0.06346517797281341 0.5023786133792111 2.320390678313473
0.06177531943122516 0.48900200563860424 2.3232920282199983
0.05990629069055154 0.47420711973270274 2.319259146465044
0.05806980456615413 0.4596698351597335 2.3161121489211145
0.05626379920047529 0.4453738306365316 2.3138552388528826
0.05457881859326521 0.43203583572247534 2.3164230441989226
0.052914436299601034 0.41886089324957937 2.319896507052295
0.05120339291540302 0.40531659021219885 2.3213242351588814
0.049408025195931765 0.3911047913293511 2.3187280738097114
0.04771961371383494 0.37773963824410023 2.320978154829134
0.045912169829628896 0.36343224667423596 2.317223525882952
0.04409295448600174 0.3490316744082747 2.312391324833756
0.042372980117428856 0.3354166753500261 2.3124162006905364
0.040689281052878376 0.3220888248906911 2.3143404399635945
0.03907097248302297 0.309278593495895 2.320151198905602
0.03739766663627914 0.2960330138268898 2.3229140976348686
0.03563017871124172 0.2820419062414802 2.3196446612038724
0.03394133243447676 0.2686733114020351 2.3212563706871734
0.032209943671411494 0.2549679581076399 2.319808262824821
0.03046872671855745 0.24118480668022393 2.3172831484712852
0.02873227619798974 0.22743938544941755 2.314675283252936
0.027047162953783253 0.21410034060542385 2.315967482453063
0.02540475039957723 0.2010993065276169 2.321166368884718
0.023725148811635 0.1878038909354414 2.3233011500427945
0.02201493611565549 0.1742661634723946 2.32236681622167
0.02032433820418459 0.16088370301651492 2.323347657500142
0.018609053410479588 0.14730582576576332 2.321256250713785
0.016904772519670277 0.1338150533755837 2.3200825870007433
0.015222471623915917 0.1204982705619009 2.3218255026764028
0.013532382206435377 0.10711983525042244 2.322491644173779
0.011841836464520807 0.09373778775910394 2.3230794691065686
0.010137793389210318 0.0802488978724381 2.3205907574459648
0.008434134383847557 0.06676304821245946 2.317023073538928
0.0067476546456712696 0.05341318645488154 2.3173747783236798
0.00505439734973111 0.0400096748032945 2.3146487733391203
0.003372613598606678 0.02669698561087615 2.3168436481253436
0.0016878054866318107 0.013360356137205445 2.3189609049605333
2.912159768438528e-08 2.3052118234562902e-07 2.3180000782012824
-0.00755114421883247 -0.03958448424258126 2.3086483316636435
-0.010054371430277504 -0.05270686083021415 2.3063758443965288
-0.012563800523265355 -0.06586174881944278 2.30602537283051
-0.015079340546975531 -0.07904867142936932 2.306596697741655
-0.017596545529003957 -0.09224432205645502 2.3070895988450206
-0.020097916798532844 -0.10535696945584758 2.305506536040665
-0.022606230646576613 -0.11850601112634145 2.3048448296277266
-0.02513554298973265 -0.13176513076314092 2.306101882058784
-0.027656388972487157 -0.1449798681844517 2.306282173644166
-0.030165419362918697 -0.15813266610168591 2.305386217076191
-0.03263101758494105 -0.17105778461879334 2.3014210514400593
-0.03514989654032273 -0.18426221052150668 2.3013676353446924
-0.03770237511984746 -0.19764277182223433 2.303228176544558
-0.04020791303494081 -0.21077726154259321 2.302020946324773
-0.04267514519688346 -0.2237109454727233 2.298745740724626
-0.045156166697406984 -0.23671691564715652 2.296390013242694
-0.047716053967539085 -0.25013631466414366 2.297933673945362
-0.05021566202780511 -0.26323971899688836 2.296416209053048
-0.052759173443677934 -0.2765732727795508 2.2968063025102095
-0.055209713960751576 -0.28941945604300684 2.2931490212195467
-0.051114954200751635 -0.2679539736605322 2.0297517897255553
-0.053322692634386874 -0.2795273438287274 2.0281335145743697
-0.055528632977547995 -0.2910912880765618 2.026446848886761
-0.05776088859470791 -0.3027931818216852 2.0256803969044923
-0.059934821910201545 -0.31418933935460086 2.0228685757102514
-0.06213492191893115 -0.32572266749717016 2.0209770888840293
-0.06439574724788136 -0.3375743289163577 2.0209890065732234
-0.06678863669536288 -0.3501182946893643 2.0248684980025575
-0.06915858030489733 -0.3625419741674299 2.0276838648754385
-0.07174464526753344 -0.376098601454253 2.0363169346927137
-0.07456598600004248 -0.3908885875189377 2.0507479050573165
-0.07686970297251694 -0.40296509480757514 2.0503637521537463
-0.07909943532306948 -0.4146537611259185 2.047946989726553
-0.08159875431250542 -0.42775565009630395 2.0523086890595783
-0.08474954237783755 -0.4442726595599554 2.0722163346259346
-0.08745413399135861 -0.45845062530997194 2.080288121504751
-0.08971624899277082 -0.4703090474289648 2.07754284298692
nan nan nan
-0.10391081580604314 -0.544719572518515 2.2846628769914488
-0.10639503626378584 -0.5577423122139592 2.281404159997463
-0.10887566898258015 -0.5707462443231949 2.2780685119468287
-0.11168417645976651 -0.5854689561075348 2.281428704794221
nan nan nan
nan nan nan
nan nan nan
-0.12230488890029634 -0.6411446804830047 2.2804295457887647
-0.12478419288077879 -0.6541416471020783 2.2766008677852585
-0.12725928902295724 -0.6671165554602828 2.2726954206965564
-0.13038640584892486 -0.683509475941593 2.280190887092069
-0.13236372153613266 -0.6938749277717512 2.2675190031906793
-0.13057105325300375 -0.6844774315315505 2.19190365354668
-0.130410431022755 -0.6836354203133789 2.1459664305166717
-0.13150763629381135 -0.6893871717704212 2.1219508948307793
-0.12956342507720459 -0.6791952596525092 2.050561695423455
-0.12905187819934005 -0.676513637008398 2.003955022908782
-0.13123023277106677 -0.6879329715781466 1.9999219171730074
-0.13082296534808435 -0.6857980009802659 1.9572048280542542
-0.13051917414425962 -0.6842054717194893 1.9174012261418225
-0.13000326088676853 -0.6815009597117909 1.875807984328544
-0.1294013201999307 -0.6783454761264456 1.8343126404420362
-0.12931689007529748 -0.6779028779133419 1.8013233766658467
-0.12950536744882446 -0.6788909109062564 1.7730607660206588
-0.13143247522433169 -0.688993163646056 1.7690174996354193
-0.1313930154779954 -0.688786308411697 1.7389463179834466
-0.13086610371568078 -0.6860241402225958 1.7033865673890776
-0.1300500556491249 -0.6817462664466976 1.665150168444169
-0.12966694799298853 -0.6797379457819007 1.6334683897241011
-0.12966390919844917 -0.67972201586306 1.6073783785414169
-0.1295334386676473 -0.6790380653886714 1.5804282572374349
-0.12896831710897413 -0.6760755944324618 1.5489719628216165
-0.13065159989501957 -0.6848996718158397 1.5449491178689367
-0.13014448709904416 -0.682241293443005 1.5154202105069259
-0.13021005540909256 -0.6825850145613821 1.4932286803167996
-0.13023178136692395 -0.6826989060208097 1.4710849068126794
-0.12996668070410697 -0.6813091996788483 1.4462857074649864
-0.12948805510967154 -0.6788001564461983 1.4197549715164648
-0.1294540380974345 -0.6786218330231708 1.3986829094675859
-0.13097378115122724 -0.6865886051072739 1.3946475459627674
-0.13121517508888428 -0.6878540364438399 1.3771943471296628
-0.1313371552285221 -0.6884934787290712 1.358884989819036
-0.13107629277529745 -0.6871259898598481 1.337070570208714
-0.13059680593031137 -0.6846124317937021 1.313552152934776
-0.13051454944717483 -0.6841812282083638 1.2945122956016955
-0.13048504827511045 -0.6840265776485444 1.2764001261962967
-0.131871716402437 -0.6912957465380685 1.2723348734269253
-0.1313293597127 -0.6884526132040223 1.249909800126952
-0.1312056932709657 -0.6878043310136281 1.2319088541972327
-0.13132793724429934 -0.6884451563635278 1.216557587113311
-0.13142123875865003 -0.6889342600301499 1.2012406642992066
-0.1311039995836799 -0.6872712340358356 1.1825167498796245
-0.1307505107526549 -0.6854181806897294 1.1638536005013675
-0.13104186955661748 -0.6869455370280748 1.1512353648528664
-0.13229233483337224 -0.6935007055706308 1.1471549665258691
-0.13264610632457124 -0.69535524067326 1.1353987220228758
-0.13217829693655442 -0.6929028979803077 1.1168954377548892
-0.13177573280786203 -0.6907925829145314 1.0993023363630572
-0.13164508546771814 -0.690107705573113 1.0842901222043346
-0.13107502143141012 -0.687119325241796 1.0659790386491084
-0.13129931599237288 -0.688295118506608 1.0544033391258893
-0.13244441269731172 -0.6942979256520252 1.0503165951657027
nan nan nan
nan nan nan
nan nan nan
nan nan nan
nan nan nan
-0.058833039829127624 -0.3084135954192304 0.4331798190669955
-0.05930339667129035 -0.31087929233448014 0.4313492793580718
-0.05977175374811173 -0.3133345061126913 0.42950419415281427
-0.05787360628567919 -0.3033840686505958 0.41085855365798946
-0.0583196912348613 -0.30572252784697995 0.4090581231445688
-0.05876380959015849 -0.3080506777971899 0.4072438988132023
-0.056902211811255536 -0.29829184048598806 0.38964099396371743
nan nan nan
-0.054707028589574824 -0.2867842870437583 0.36576756118905257
-0.0551041028126117 -0.2888658230162455 0.36406602318377485
-0.05549931887437696 -0.29093761816622354 0.3623522085357416
-0.055176092938562 -0.28924320847250445 0.35600277607920777
-0.05556253405878494 -0.2912690037680041 0.3542868664070076
-0.05546271010067583 -0.29074570825380275 0.3495065447904067
-0.05364741014707677 -0.2812295726422503 0.33411357463875235
-0.05401005910674689 -0.28313064506434077 0.3324454079133182
-0.0543708867973102 -0.2850221700594227 0.3307660308214979
-0.0542323356671312 -0.2842958595996537 0.32608389846010133
-0.054586237565907796 -0.28615107832274517 0.32439774027493556
-0.0543082729899897 -0.28469393698673623 0.31899995109001744
-0.05465446546990091 -0.28650874152083167 0.3173115590455935
-0.05295709524043818 -0.2776108151728718 0.303895992794721
-0.05328687568141703 -0.2793395847859434 0.3022497284128975
-0.05361485923970251 -0.2810589348100626 0.30059327189090607
-0.05381105812895084 -0.28208744540591285 0.2982063830943428
-0.054526912023946474 -0.2858400829407349 0.2986825392794613
-0.05511406801171724 -0.28891806241937906 0.2984121185797199
-0.05504091649684271 -0.28853458874917026 0.2945747710644076
-0.05536051925674637 -0.2902100050896157 0.2928640862151281
-0.05581209544249187 -0.29257725035615245 0.2918433809378102
-0.05626331664800691 -0.2949426347511535 0.2908045597470307
-0.05657879637997444 -0.29659643742224767 0.28905605628056763
-0.05525909123321111 -0.2896783007699744 0.2790500052193184
-0.05419328169109541 -0.2840911314877017 0.27050196954946437
-0.05448670480301674 -0.2856293093073348 0.26881795878414844
-0.0547782905728979 -0.2871578554426921 0.2671248832288326
nan nan nan
-0.055495700839287725 -0.29091865176208287 0.26437771650076386
-0.055782438109607875 -0.2924217811726484 0.2626534470195157
-0.056067294344563305 -0.2939150498505095 0.2609203206213013
-0.055640555404857135 -0.2916780059873601 0.25591416799370353
-0.055062194432260736 -0.2886461315928586 0.25029496832061077
-0.05519026162470638 -0.28931748332637647 0.24794035879661916
-0.0563234180556377 -0.29525769736343743 0.2500631255844158
-0.05616033734829488 -0.29440279835700855 0.24640823385005556
-0.056427510576484034 -0.29580336946713476 0.24466367025499708
-0.05669278101686874 -0.2971939658142741 0.2429108563748702
-0.05578178398265013 -0.2924183521190505 0.2361776795036516
-0.05603783158947325 -0.293760600679522 0.234445019770508
-0.05569944108215193 -0.29198669551803763 0.2302549287678576
-0.05520504287254769 -0.2893949693411185 0.22548602827374783
-0.055449466473813575 -0.2906762827305111 0.2237714220156755
-0.056142363213699746 -0.2943085746437492 0.22384482923254923
-0.056384985200534185 -0.2955804436395498 0.22210120308540862
-0.05662570583355913 -0.2968423453896283 0.22035008748044385
-0.05640838133187261 -0.29570309045511367 0.2168381211779632
-0.05572731205412295 -0.29213280026969374 0.2116078936609696
-0.05473017681682021 -0.28690563430055593 0.20527727586299235
nan nan nan
nan nan nan
nan nan nan
-0.054985728541186926 -0.2882452833541563 0.19621471872624444
-0.05519830533410273 -0.28935964992770524 0.19450740254782395
-0.055409020789150824 -0.2904642590264451 0.19279352740003433
-0.05593298385091139 -0.2932109695859162 0.19215572074374251
-0.0562992747266962 -0.29513113360086685 0.1909555185332963
-0.05650610676606512 -0.29621538512169476 0.18920758422682973
-0.05671103336729345 -0.2972896479859872 0.18745326966576578
-0.05675417399631949 -0.29751579908314646 0.18517101666416064
-0.05695470417149764 -0.2985670150749831 0.1834090825572129
-0.056992320599212026 -0.2987642072947276 0.18112930561196564
-0.056542250450341607 -0.29640485694996993 0.17733338805242968
-0.05657216017940043 -0.2965616492405576 0.17507650818549486
-0.05676170945280564 -0.2975553013294143 0.173320384885407
-0.05727570259986741 -0.30024974776574626 0.17254156182586908
-0.05680763729901747 -0.2977960635307419 0.1688176497752754
-0.05616918612387902 -0.2944491852630887 0.16464721390473097
-0.056347393936063465 -0.2953833833301481 0.16290375461466436
-0.05652370166205062 -0.2963076207965413 0.1611548020594437
-0.056698103356581014 -0.2972218664961269 0.15940041521536544
-0.05670430204346543 -0.29725436115073683 0.15717970786705734
-0.056540800605455084 -0.29639725659691063 0.15450823633852948
-0.05670796979402468 -0.29727358817249816 0.1527534316623084
nan nan nan
-0.05703656586310165 -0.29899614909063177 0.14922842869654673
-0.05719798166304589 -0.2998423203468318 0.14745834927336382
-0.057357468694188604 -0.30067838064288854 0.14568329741836894
-0.05683638191026848 -0.2979467480598874 0.14220536770039255
-0.05613956063952836 -0.2942938830354431 0.1383454690032031
-0.05645972064637449 -0.29597222056666095 0.13701731553057908
-0.05694990123312918 -0.29854183719032684 0.13608263318558744
-0.057097014377160145 -0.29931303129853193 0.13431546114375795
-0.05724220215709978 -0.30007413229470975 0.13254375986045025
-0.057730117786586356 -0.3026318755965728 0.13155298158598727
-0.058217795895475564 -0.3051883737718601 0.1305364053115248
-0.058358852736980445 -0.30592781963040067 0.128730034721921
-0.05867152381945146 -0.30756689884521915 0.12729593357643584
-0.058809047009962194 -0.30828782065653676 0.12547555659283263
-0.05842141183409538 -0.30625576590214587 0.12255345805776681
-0.05855377889013492 -0.3069496583099966 0.12074091200573764
-0.05833381749491375 -0.30579658029548945 0.11821429724959787
-0.05846146452852709 -0.3064657294792751 0.11640453890668312
-0.058411199853657746 -0.30620223282596504 0.11424673279189686
-0.058358221864901215 -0.3059245124831452 0.11209598904755706
-0.05847921107350078 -0.3065587601259577 0.11028557757063988
-0.05859822830905902 -0.30718267032407054 0.10847144716212595
-0.058715269558204795 -0.30779622203865553 0.1066536589961692
-0.05883033087419899 -0.30839939458018156 0.10483227437026649
-0.05876533390739518 -0.3080586685479805 0.10269615824261613
-0.05869767276800163 -0.3077039764339722 0.10056760705252624
-0.05880611206561016 -0.3082724351394431 0.09874687036485756
-0.05891256836677383 -0.3088304986135093 0.09692280384146268
-0.058478890374454105 -0.30655707896268075 0.09422833959520094
nan nan nan
nan nan nan
nan nan nan
nan nan nan
-0.05842419106198409 -0.3062703351249522 0.08434515193103735
-0.05851498309874853 -0.30674628364937456 0.08253316396042334
-0.05860380195620592 -0.30721188840563096 0.08071839289524707
-0.05905404950932029 -0.3095721687360035 0.07938944408442772
-0.05895747338678005 -0.30906589897209547 0.0773193833550072
-0.05904061159876032 -0.3095017247419015 0.07549098742110563
-0.05857433682448205 -0.30705742677589276 0.07297801040719952
-0.05865275758995562 -0.3074685228250766 0.0711615610741725
-0.05836328577784066 -0.3059510584444125 0.06891066942515586
-0.05807090567887116 -0.30441834829015035 0.06668013344343277
-0.05795906971993304 -0.30383208366242687 0.06467472741389224
-0.057477558959901746 -0.3013079158620615 0.06228054290965304
-0.05754435815911891 -0.30165808952742923 0.060498263090486906
-0.05797732767516662 -0.30392779521557706 0.0590891129482206
-0.058593412244241215 -0.3071574236281571 0.057837029876033584
-0.05883981152212904 -0.3084490938770988 0.05619641195932656
-0.05889996752832156 -0.30876444270506653 0.05437201851005412
-0.05914295673760574 -0.3100382367483637 0.05271050981220512
-0.05919931457556181 -0.3103336748811641 0.050876780665633066
nan nan nan
-0.058194054653035725 -0.30506391782054676 0.046319160560188095
-0.0582434739767313 -0.3053229829878134 0.04451494565342668
-0.05829092927665832 -0.30557175238192763 0.04270922966155908
-0.05777906075207833 -0.30288844360668576 0.04051128661357971
-0.0578221674469117 -0.30311441681457735 0.0387200302926067
-0.05860754867903439 -0.30723152941452536 0.037402420635691824
-0.058833443532638564 -0.3084157117071471 0.03569851377549256
-0.05887129560715632 -0.3086141392306952 0.0338746632742703
-0.05927998781230485 -0.3107565787982537 0.0322525138829468
-0.05931408271899221 -0.3109353105582898 0.030414883074185543
-0.05897293589287084 -0.3091469562676475 0.02839650425911407
-0.05900284020059808 -0.3093037201386198 0.026568454004445848
-0.05940436242336574 -0.31140857334226446 0.02489608497737935
-0.05943045060368462 -0.3115453323727932 0.023054723831804517
-0.05964150185145295 -0.3126517017586178 0.021279292634125927
-0.059663650553038475 -0.3127678093184124 0.019430643517688074
-0.06005798111688327 -0.3148349625257307 0.017691567235261767
-0.06026336985893645 -0.31591164801706734 0.015879386145102127
-0.060279632364573246 -0.3159968990571043 0.014011556381994025
-0.060481113375992206 -0.3170530995070709 0.012180966744363742
-0.0604933479104192 -0.3171172351825667 0.01030645146600892
-0.059192320458929575 -0.31029701043779023 0.008248860743797826
-0.05920029814551105 -0.31033883093540293 0.006414351459288306
-0.058269466675420024 -0.30545924148610826 0.004507163082689139
-0.05827338853013133 -0.3054798005684834 0.002701316126704895
-0.05865010718780292 -0.3074546289304284 0.0009011361500989697
-0.05865009885827459 -0.3074545852655117 -0.000916446057330454
-0.05827336370149722 -0.30547967041222535 -0.002716527693887447
-0.05864414905958388 -0.3074233953285044 -0.0045514564724556525
-0.059012893591889735 -0.3093564218613834 -0.006409457153070877
-0.05900492439059613 -0.30931464584520746 -0.008238158852370097
-0.059182254265184094 -0.31024424160221337 -0.010098540700113498
-0.05917026806690591 -0.3101814077503995 -0.011932428687579601
-0.05915628659250596 -0.31010811429486035 -0.013765914302522934
-0.05951461123866509 -0.31198651787166387 -0.01569766188374763
nan nan nan
-0.059850502807507755 -0.31374732313888526 -0.019507177121145577
-0.059828267678262353 -0.31363076250943106 -0.021361615499169546
-0.059804015084540196 -0.3135036259608214 -0.023215333543777424
-0.05977774584416115 -0.31336591778021805 -0.025068268745883613
-0.05974946084294829 -0.3132176426112682 -0.026920358622800705
-0.05971916103469799 -0.3130588054539476 -0.02877154072034643
-0.05894076587824238 -0.308978315145158 -0.030238982774870738
-0.05834762235591019 -0.30586894791114455 -0.03176063033680003
-0.058684681327677436 -0.30763587291880967 -0.033782782136968656
-0.05864693237666545 -0.3074379859876104 -0.035600851010217045
-0.05860720579689481 -0.307229731963403 -0.03741771938986863
-0.05782181248915532 -0.30311255606085485 -0.03873512403083939
-0.05796447609489308 -0.3038604248724758 -0.0406566811759071
-0.058476174014364904 -0.3065428393044207 -0.04286050911723739
-0.058614041586631395 -0.307265566428124 -0.04481378145166972
-0.05986160089577089 -0.31380550135496 -0.047662406471192326
-0.061290057676895764 -0.3212937340393026 -0.050743132095661635
-0.061233810012853634 -0.320998873458385 -0.052641655631168856
-0.061175497488148295 -0.3206931884988014 -0.054538404041399105
-0.061115122069131965 -0.32037668946853115 -0.05643331336624309
-0.06105268579171954 -0.3200493870402139 -0.058326319707607197
-0.06098819076132003 -0.3197112922507902 -0.06021735923156814
-0.060553531826057834 -0.31743273031697455 -0.061731102345825004
nan nan nan
-0.05968057769343236 -0.3128565444958604 -0.06468387328913
-0.05960918805774546 -0.31248230691980095 -0.06653228398733962
-0.05953578834514907 -0.3120975321515697 -0.06837845115544702
-0.05909447569116227 -0.3097840902027026 -0.06979018077880275
-0.05920025417641731 -0.31033860044134165 -0.07184207402029724
-0.05966849953501699 -0.3127932285721253 -0.07435765715187741
-0.05958658392848355 -0.3123638119245188 -0.07620553044345223
-0.05968462740997388 -0.3128777738534225 -0.07828952562608622
-0.059598433212483024 -0.3124259280465488 -0.08013783242743948
-0.06005452856294783 -0.31481686360417743 -0.08273328318968097
-0.060325810727440844 -0.3162389745127316 -0.08510411516122383
-0.05987043504527333 -0.31385181158843484 -0.08644982086725471
-0.05941417724292761 -0.3114600244282233 -0.08777018978927734
-0.059497971495176584 -0.3118992892815545 -0.08988233078984399
-0.059579161306037104 -0.3123249011750012 -0.09200260758222051
-0.05947804749761434 -0.3117948440286636 -0.093847414779769
-0.05919554989681024 -0.31031393974402444 -0.09539997027017785
-0.05891167994997008 -0.3088258413695275 -0.09693818214617461
-0.057017816306394485 -0.2988978604723083 -0.09576033249416
-0.0551285574426892 -0.28899401867651997 -0.09446846212138724
-0.055024835543974415 -0.28845028944207546 -0.09617530351518577
nan nan nan
-0.054989216412217254 -0.2882635674144045 -0.09990146774740892
-0.05487958513627319 -0.28768886013967404 -0.10160389935923138
-0.05476810327000103 -0.2871044517307103 -0.1033029047936696
-0.05377324679800342 -0.2818892314676402 -0.10330490537454741
-0.05365993269755556 -0.28129521815076386 -0.10496959670051144
-0.055475934650706236 -0.2908150337728398 -0.11047644996942065
-0.05535478838790748 -0.29017996282308295 -0.1121937866819614
-0.056630045868576666 -0.2968650966499387 -0.11679106521445219
-0.056502009129047695 -0.29619390455620065 -0.11854406137008415
-0.05637206708955422 -0.2955127245302716 -0.1202930601104135
nan nan nan
nan nan nan
nan nan nan
nan nan nan
nan nan nan
nan nan nan
nan nan nan
nan nan nan
nan nan nan
-0.08126567768779808 -0.4260096012830106 -0.20335366065128588
-0.08104303565437164 -0.4248424708709168 -0.2058686556323314
-0.08081766077488654 -0.4236610143780847 -0.20837670853205426
-0.08109429545074677 -0.42511118413384574 -0.2121984682656127
-0.08086203215263323 -0.4238936172859797 -0.21470800298302728
-0.08079432096696407 -0.42353866282020713 -0.21766094895361712
-0.0808896853065195 -0.42403858019524826 -0.2210727373354113
-0.07965006289225902 -0.41754025192843214 -0.2208098900784238
-0.07791643631774385 -0.40845226316372724 -0.21907938412229705
-0.07767673938260046 -0.40719572782587543 -0.22149032095934995
-0.07710491426394407 -0.40419811557758684 -0.22294104747749408
-0.07653256247794786 -0.4011977424424166 -0.22436383325667475
-0.07628713879529245 -0.3999111864427841 -0.22673179474064528
-0.07603914263981566 -0.39861114506836454 -0.22909211061896165
-0.07546330882277628 -0.395592518487231 -0.23045137436845886
-0.07456290963407153 -0.39087246064375525 -0.2307793311678401
-0.07350281591279824 -0.3853152547436553 -0.23055260234395838
-0.07276773415708034 -0.38146182123305505 -0.23129143670854366
-0.0723544069423113 -0.3792950840941655 -0.23302592880224965
-0.071779895441522 -0.37628338933756716 -0.2342209605808937
-0.07152382621804969 -0.37494102745865227 -0.2364414707021167
-0.07047174517813432 -0.3694258255052074 -0.23599639332523903
-0.06910679247530824 -0.36227049285745655 -0.23442130207127485
-0.06822033807246032 -0.35762353614144166 -0.2343936654981888
-0.0673362954093144 -0.3529892222076946 -0.23431906439440156
-0.06614201255977346 -0.34672857226262604 -0.2330955555291298
-0.06464116565210555 -0.33886085724548476 -0.23069423964185282
-0.06206174122182346 -0.32533904084833776 -0.2242829764934705
-0.06181664950523396 -0.3240542250757655 -0.22620248854259725
-0.05972238994745588 -0.31307573200739186 -0.22127094487893154
-0.05948061510557013 -0.31180830390093217 -0.22311801120864785
-0.05740476381653704 -0.30092631035673023 -0.21800008978106175
-0.0556462005551557 -0.29170759890156817 -0.21393030328483997
-0.05541248189067549 -0.2904824027560303 -0.21565117225854666
-0.05487538096670558 -0.2876668211109945 -0.2161769812330248
-0.05463923065807024 -0.28642887784039156 -0.21787392462513228
-0.05440123786408195 -0.2851812759233229 -0.21956352110715194
-0.05401261743864047 -0.28314405630978834 -0.22063790362260954
-0.054067890694288634 -0.2834338088630218 -0.2235328748777081
-0.05382374995338191 -0.2821539782795598 -0.22520467011986262
-0.05255027501640527 -0.27547818887398173 -0.22251796195103524
-0.053183919659987214 -0.27879987042082727 -0.2278993145279281
-0.052935042641457986 -0.2774952114005769 -0.22954364188464405
-0.05456596732054776 -0.28604481797533365 -0.23943667299701715
-0.05430451304494212 -0.2846742266645419 -0.24112363549006577
-0.05404122757097076 -0.28329403587574364 -0.24280246707128986
-0.054061404806991245 -0.28339980865112246 -0.24577005332490262
-0.05407693660194392 -0.2834812291716086 -0.2487470339532237
-0.054370242428148016 -0.28501879215798054 -0.2530477376145026
-0.05437498934016384 -0.2850436763422109 -0.25605167226020314
-0.055073930033673155 -0.28870765176989727 -0.262394262809685
-0.05548275875308135 -0.29085080697026644 -0.2674480562913537
-0.05519080945657991 -0.2893203551616291 -0.2691629578690337
-0.05489699907497869 -0.2877801472032386 -0.2708687830230258
-0.053917110862392176 -0.2826433933038912 -0.2691498699483144
-0.053487238109107084 -0.2803899214146522 -0.27012888141711355
-0.0533277533033161 -0.27955387278429766 -0.27247344467709433
-0.052491991636225165 -0.2751726566953498 -0.27133851304836243
nan nan nan
nan nan nan
nan nan nan
nan nan nan
-0.05034006434872282 -0.2638918588010556 -0.2757751936570765
-0.050039140890123096 -0.26231436278721226 -0.27733058271893685
-0.04973653006544858 -0.26072802129063644 -0.27887661993725116
-0.048918663116087294 -0.25644061259715956 -0.2774998844597079
-0.04861588696368182 -0.254853404422267 -0.2790111952136292
-0.048311471438639265 -0.25325760235505296 -0.2805130974521981
-0.04825742054483729 -0.25297425764701975 -0.2834858654685735
-0.047572570291050525 -0.24938414689109759 -0.2827443973120248
-0.0471397325717136 -0.24711513210550307 -0.2834659825130183
-0.046954056338141766 -0.24614178320246985 -0.285673827172425
-0.046519677503262705 -0.2438646896062838 -0.28636853687642955
-0.04596345325888852 -0.24094886000500834 -0.2862865887233529
-0.0454089842612665 -0.23804223172943792 -0.2861798736138316
-0.04509682247058345 -0.23640582231566834 -0.2875822730599182
-0.044424875907060325 -0.232883355072982 -0.286663181964096
-0.04411220481457463 -0.23124427580566476 -0.28803507574026016
-0.04379804621777603 -0.22959739876766158 -0.28939725670748107
-0.043482410710382745 -0.22794277949318817 -0.29074967893175757
-0.04293323691769371 -0.2250639096539761 -0.2905219049704016
-0.042846751587340026 -0.22461053767518885 -0.29342506506238025
-0.042755388302301287 -0.2241315945624422 -0.2963326082634509
-0.042432223925181575 -0.22243750757070457 -0.29765260158227985
-0.042107628694257125 -0.22073591978064477 -0.2989625577803059
-0.04166989612367031 -0.21844124528619613 -0.2994595783928676
-0.04056746710396543 -0.21266210997975651 -0.2951018555489156
nan nan nan
nan nan nan
-0.03894889544599253 -0.20417726020947585 -0.2939296518838682
-0.038628409937296514 -0.20249721633780488 -0.2951317224915669
-0.03830662184291875 -0.20081034407286005 -0.2963238409848354
-0.037772521916738 -0.19801049420916156 -0.2958531529518056
-0.03703152707519891 -0.1941260632171558 -0.29370008359122207
-0.036607617631510866 -0.1919038520915755 -0.29400983563088834
-0.03669827029110606 -0.1923790699752897 -0.29848371082291797
-0.036474753905337234 -0.1912073560477026 -0.3004552323745145
-0.03574332929668627 -0.18737309397341037 -0.29821089783041693
-0.035418239353950325 -0.18566891281321496 -0.29931355574886387
-0.03469543500789636 -0.18187983973797364 -0.29701169423808343
-0.033978847741642774 -0.17812335773638432 -0.29467524090210356
-0.03356035959224045 -0.175929566030697 -0.2948685965608173
-0.03256452998350787 -0.17070924440621268 -0.2898998187975826
-0.03177148812368247 -0.16655197338950053 -0.2866007947662249
-0.03145909825751176 -0.1649143683621543 -0.2875805610654132
-0.031145647561474712 -0.16327120226990038 -0.28855062988231306
-0.030831146605418455 -0.16162253052181788 -0.28951096850530755
-0.030515605994605878 -0.15996840871264179 -0.2904615445508908
-0.029654908492236117 -0.1554564743974139 -0.28615182303227354
-0.028714904361989962 -0.15052880017965894 -0.28092086075319755
-0.027964860194135823 -0.14659693095782425 -0.27740278464001095
-0.02696000340196036 -0.141329287180512 -0.2711977095808483
-0.02588276058321145 -0.13568218256319436 -0.2640538443740156
