VERSION .7
FIELDS x y z
SIZE 4 4 4
TYPE F F F
COUNT 1 1 1
WIDTH 901
HEIGHT 1
VIEWPOINT 0 0 0 1 0 0 0
POINTS 901
DATA ascii
nan nan nan
nan nan nan
nan nan nan
nan nan nan
nan nan nan
nan nan nan
nan nan nan
nan nan nan
-0.008577163616400754 0.03340584671054149 -0.1959884742769627
-0.008293986336283527 0.03230294402212644 -0.19618544792547504
-0.008010529375282103 0.031198952048586002 -0.19637580601937743
-0.007726802291827167 0.030093908017549794 -0.19655954213961896
-0.007442814653458182 0.028987849192123778 -0.1967366500904479
-0.007158576036500761 0.027880812869633703 -0.19690712389962045
-0.006874096025743748 0.026772836380367447 -0.19707095781860223
nan nan nan
-0.006114366364436968 0.023813884710314558 -0.19142757075568728
-0.005837817141861232 0.022736796601651295 -0.19156711460418174
-0.00556107106269642 0.02165894178719428 -0.19170019863253387
-0.0051472424314463385 0.020047185682467605 -0.18685720168390407
-0.0048773097181460555 0.01899586717602949 -0.18697424009664687
-0.004631719037624861 0.018039354627832196 -0.18808010845410184
-0.004429235932083901 0.017250734999282525 -0.19117215971974477
nan nan nan
-0.003937366653995176 0.01533503064288694 -0.19435619668412016
-0.0036566248226214825 0.014241613401064312 -0.19444485787272414
-0.003375759686479479 0.013147715918876332 -0.19452696220102328
-0.0030947807166011184 0.012053375083557026 -0.19460250690038378
-0.002871414376435061 0.011183420626163435 -0.19866475898392116
nan nan nan
-0.00234361479194906 0.009127776965651613 -0.20278113518230118
-0.0020507331328504285 0.007987078216537205 -0.2028324399686381
-0.00175778232113536 0.006846110135764028 -0.20287690505765046
-0.00145034105968565 0.005648705479422138 -0.20091538181519852
-0.0011601688503848548 0.004518559340548644 -0.2009458599783887
nan nan nan
-0.0005883693167515344 0.002291547192478023 -0.2039862766869754
-0.0002937768719479876 0.0011441853729630793 -0.2039965758991688
8.254792831769372e-07 -3.2150295400460275e-06 -0.20399999615829822
0.0003026686950045038 -0.0011788167372797467 -0.2089964627062468
0.0006044814720809697 -0.0023542998943248614 -0.20898587156819987
nan nan nan
nan nan nan
0.001516980418927674 -0.005908248647687117 -0.20991138276565935
0.001820093984858317 -0.007088798042827809 -0.20987242183397925
0.0021231461755377395 -0.008269108397147343 -0.2098263838102801
0.0024607857969688603 -0.009584127900257436 -0.2127700374172085
0.0026900395907963623 -0.01047701247573267 -0.2067171904663073
0.0029885205522556654 -0.011639519067708897 -0.20665089227603511
0.003286900738040088 -0.01280163316434543 -0.2065776256266977
nan nan nan
0.0036957185116615523 -0.014393873267125976 -0.19643868472343354
0.003979339027336205 -0.01549850224406136 -0.19634907707426688
0.004262825356021326 -0.01660260859717804 -0.19625284835276408
0.004592322021777088 -0.01788591338185352 -0.19814137644749397
0.0050745023914764665 -0.01976388193152763 -0.20599184288261468
0.005371895654214943 -0.020922152216682602 -0.20586987934470274
nan nan nan
0.006139059907942216 -0.023910059712444524 -0.21156469645208156
0.006444483141935267 -0.025099604670768542 -0.21141778136966582
0.006749689062001067 -0.02628830324722712 -0.21126373708427934
0.006955305662387182 -0.027089127032435916 -0.20812928714149953
0.00722120319385876 -0.028124729543278337 -0.20697308147078716
0.007519977297460066 -0.029288377848517615 -0.20680097559105176
0.007818497820477272 -0.03045103852258881 -0.20662189619130314
0.008233262791027766 -0.03206644142811556 -0.20939903451666536
nan nan nan
0.008962554981929058 -0.034906846977784525 -0.21195798210981648
0.00926849856576589 -0.03609841856494468 -0.21174513134720785
0.009574129607265548 -0.03728877288007025 -0.21152514034308467
0.010017290013087635 -0.039014768704233656 -0.21424635221360913
0.010468628887433893 -0.04077261756024585 -0.21695391638626085
0.012147776783982649 -0.04731246683269968 -0.24416175169789675
nan nan nan
nan nan nan
nan nan nan
nan nan nan
nan nan nan
nan nan nan
nan nan nan
nan nan nan
nan nan nan
nan nan nan
nan nan nan
nan nan nan
0.018167520614003275 -0.07075782110318082 -0.2609679497265214
0.01854408571984373 -0.07222444535856887 -0.26053933525373163
0.018920025501976086 -0.07368863413891275 -0.26010193515377816
nan nan nan
0.01916189783327802 -0.0746306646730562 -0.252505613415969
0.019526225467071 -0.07604962712162493 -0.2520539227593192
0.019889894658495964 -0.07746602510648544 -0.25159373261145684
0.020099461823854588 -0.07828223532639385 -0.24922259206033834
0.020459032543105892 -0.07968267081603986 -0.24874906449191336
0.02050008197572294 -0.07984254780042405 -0.24447680296371388
nan nan nan
0.020547287579338294 -0.08002640148781759 -0.23595250377574423
0.020887687026968787 -0.08135216980429855 -0.23546874314608293
0.021227382122489258 -0.08267519485043162 -0.2349770422927929
nan nan nan
nan nan nan
0.021530378692661743 -0.08385528857717918 -0.22598392141105597
0.021856365644727486 -0.08512492392953759 -0.22547737352586877
0.022181615579944997 -0.08639168879079241 -0.22496322233527008
0.02232011618130912 -0.08693111301835882 -0.2225865931005764
0.022641183637252864 -0.08818158819834623 -0.2220616620026988
0.022674469853977502 -0.08831122945310217 -0.2187601353262827
0.022698992123661763 -0.08840673738774162 -0.2154646219536887
0.0230097681455739 -0.08961713007856743 -0.21493096412334173
0.023319768256839554 -0.09082450079694683 -0.21439005862225483
0.02413387430598648 -0.09399523451501701 -0.21841119125759867
0.025267254119022736 -0.09840945744376176 -0.2251358291155594
0.02559195331085179 -0.09967407730113946 -0.22454203890706714
nan nan nan
0.026663670167977237 -0.10384813887293673 -0.22694846613879083
0.026990963497516847 -0.10512286222962734 -0.22632203883642402
0.02731734666682346 -0.10639404074625365 -0.22568797974575083
0.027532679370362828 -0.10723270625479633 -0.22414972289958637
0.02785591630136193 -0.10849163098225456 -0.22350305128526057
0.02795278773704092 -0.10886892031421211 -0.22106604858503315
0.02849956131346441 -0.11099846279425196 -0.22218711992879592
0.029281067787792055 -0.11404222955122101 -0.22506219821675766
0.02960559297234201 -0.11530617169499174 -0.22437468607614108
0.03028261231949566 -0.11794298795996773 -0.22632148509264557
0.03203814970970069 -0.12478035466703104 -0.23614490618548117
nan nan nan
0.03454245210530331 -0.13453396852888816 -0.2477164419166992
0.034899604233765584 -0.1359249842293396 -0.24690569367276397
0.03525557951532042 -0.13731141641370695 -0.24608661954065877
0.037365806284118695 -0.14553020704376585 -0.2573494900864446
0.03773682217501364 -0.14697521853389436 -0.2564726536655752
0.039513180833688315 -0.15389367872756043 -0.26502157497116957
0.0398952400001388 -0.15538170093625392 -0.26409446766561484
0.041709726713409 -0.16244866009812828 -0.2725265619204463
0.04210258701536723 -0.16397874995216571 -0.27154803838934627
0.043821968661857204 -0.1706752993347301 -0.279015386518726
0.04422416405107286 -0.17224174695316352 -0.27798743240495744
0.0451657726980744 -0.17590907050321297 -0.2803070569175732
0.045979123319621645 -0.17907686202503692 -0.281755933499402
0.04652287992664466 -0.18119465418506073 -0.28151042363604467
0.04803936792191102 -0.18710098496921135 -0.2870564941245201
0.04971344599137619 -0.19362108856885565 -0.293367414229325
0.050136268228877186 -0.19526787245726812 -0.29220165122158476
0.050557399825079785 -0.19690807173256342 -0.2910260349041254
0.05126402055890866 -0.19966017778678874 -0.29147351309479136
0.051973628883118 -0.20242391973730184 -0.2918977504810141
0.05297807221296455 -0.20633596821940367 -0.2939180090853104
0.0536958590109962 -0.20913156322240048 -0.29428855049262265
0.054416492576343296 -0.2119382456520587 -0.2946354278435862
0.05528935745721802 -0.21533782991016479 -0.29575785617654166
0.05556495270748534 -0.21641120254199606 -0.2936659981532485
0.05598810747962204 -0.21805928156730492 -0.2923635965191337
0.05610363634124143 -0.21850923677563522 -0.28947384235536
0.05698274894079112 -0.22193315429141025 -0.29051444865619136
0.05740132856378959 -0.22356341428730278 -0.28917899439604994
0.058286765548527394 -0.227011963657101 -0.2901675693367776
0.05949174941690476 -0.23170506596876952 -0.2926730043695181
0.0599134039701838 -0.23334730202740173 -0.29127892816369966
0.06017342902717995 -0.23436003276024026 -0.289108174460321
0.060589924012304446 -0.235982173627668 -0.2876982410342366
0.0611661890847039 -0.23822657790094143 -0.2870379560709986
0.06141677056215777 -0.23920252831983266 -0.28484931770177063
0.0614990983887489 -0.2395231740342104 -0.28190691725807004
0.062070249809092 -0.24174766194767475 -0.2812140507687484
0.06280762885675815 -0.24461956372494753 -0.28124804733786796
0.06287826882352675 -0.24489468823079194 -0.27829643422868
0.06395228800647498 -0.24907771676963722 -0.27976846184586085
0.06486329765694783 -0.2526258650965885 -0.2804673144796638
0.06526723505109937 -0.25419909737629925 -0.27894801758038623
0.06566897157376787 -0.2557637578275268 -0.2774193142961644
0.06658600509901651 -0.2593353675977201 -0.27804222115308785
0.06802764777178674 -0.264950195096854 -0.28078038610132594
0.06843198392938232 -0.26652498045763917 -0.27918719585607216
0.06760483379609439 -0.26330344338606165 -0.2726277238381183
0.06711432124230564 -0.2613930231219395 -0.26752448808173696
0.06749952957051196 -0.26289331050588055 -0.26595284765359417
0.06788246175220107 -0.264384732884437 -0.2643722390496466
0.06987986324147465 -0.27216409806321157 -0.269006519114042
0.0717122512080604 -0.279300778003531 -0.2728689065653402
0.07210510004346693 -0.28083082319829805 -0.27118981364785427
0.07286072942512994 -0.28377380533350516 -0.27085924898793995
0.07288349019721548 -0.283862452687958 -0.2678042504284039
0.07253077704562504 -0.28248872566096134 -0.26341680186108124
0.07290996202054865 -0.28396555363274184 -0.26171875560480695
0.0732866884041728 -0.28543280602362553 -0.26001188395022484
0.07497297031992138 -0.29200044046638485 -0.26289694037249084
0.07535136337121782 -0.2934741840992768 -0.26114187728844657
0.07610585234411532 -0.2964127246355927 -0.26067490090915674
0.07648101738257662 -0.2978738959885594 -0.25889342231822265
0.07628006505985202 -0.29709123836544615 -0.25518451953259486
0.07722359786379447 -0.300766056011993 -0.2553043351274715
0.07739797259497698 -0.3014452007503464 -0.25286624772324057
0.07853751992294003 -0.3058834445637849 -0.25355902127856333
0.07890236771329032 -0.3073044328883887 -0.2517208828483997
0.07965598553544513 -0.31023958051657397 -0.2511082055984573
0.08001727517362837 -0.31164671075344835 -0.24924399214413223
0.08017837951333064 -0.31227417072940195 -0.24676357159775905
0.08192189268669439 -0.3190647062038366 -0.24910942678496636
0.08228025762592371 -0.32046044549035735 -0.24719233774649782
0.0826358479988261 -0.3218453785545008 -0.24526691315395627
0.08278771335001404 -0.32243685504595143 -0.24274404095521243
0.0831368712519958 -0.32379673528993724 -0.24080684219291026
0.08388848489985151 -0.32672407717459107 -0.24002104750713082
0.08403022542232957 -0.3272761200617665 -0.23748316195518795
0.0837588968065242 -0.3262193648740205 -0.23380626649941652
0.08532579399232743 -0.3323220264928374 -0.23523942426469704
0.0871055340294896 -0.33925365628620746 -0.23716785046470187
0.08744656639188847 -0.34058188964296027 -0.2351299239349799
0.08757711774278074 -0.3410903535840494 -0.23253303312263976
0.08791144887931662 -0.34239248738925315 -0.23048417318501252
0.08824281556055243 -0.34368307540335813 -0.2284275411080621
0.08878109454572625 -0.3457795336348227 -0.22689962103696268
0.09037119917597179 -0.3519725822820625 -0.22801170867765733
0.09196747326302261 -0.35818965937711345 -0.2290570973603837
0.09229671067604164 -0.3594719544390449 -0.22690578054425567
0.09283575907538995 -0.3615714093408681 -0.22526346493941402
0.09358684140126738 -0.3644966818630434 -0.2241152970867655
0.0939089149132533 -0.3657510753726127 -0.22192625109372824
0.09573374568967288 -0.3728583220005291 -0.2232413834516324
0.0975654908222423 -0.37999249826765646 -0.22447866078631412
0.09832115572246497 -0.38293561873851995 -0.22317987986151566
0.09907634480079604 -0.385876886005471 -0.22185334562515
0.10135680452336714 -0.3947586902159102 -0.22386910908334404
0.10299036688015603 -0.40112099553309616 -0.22435667590156774
0.10331263042653542 -0.4023761291777617 -0.2219480520559794
0.10407145953131743 -0.40533157341172427 -0.22046414092489156
0.10438808352681932 -0.40656474245590457 -0.21803033902765662
0.10580796430772244 -0.41209481298217926 -0.2178681382641633
0.10589880285041817 -0.41244860574729575 -0.21494322355531345
0.10487147797659066 -0.4084474395352643 -0.20979430162248083
0.10405619808802503 -0.40527213401450524 -0.20514091830923487
0.10412676798009424 -0.405546985597415 -0.2022727415862279
0.10396801351283337 -0.4049286777703625 -0.19897843512247743
0.10425361111881914 -0.4060410070056607 -0.19654741096479456
0.10453569319669138 -0.40713964416295734 -0.19410975904677352
0.10504062799010623 -0.40910623534181534 -0.19207952073491527
0.10463532257555162 -0.4075276749744144 -0.1883975563080414
0.10558830982494219 -0.4112393152548176 -0.18716121934557978
0.10699751870288261 -0.4167278214632798 -0.186682791837089
nan nan nan
nan nan nan
0.12962382892070656 -0.5048514815175769 -0.2154498930578388
0.1299327808700351 -0.5060547699147409 -0.21241952390283972
0.13023735136591455 -0.5072409936773898 -0.2093819917651859
0.13308346964022943 -0.5183258924905632 -0.21036170177413763
0.1350088396112581 -0.5258247134283236 -0.20977369700757878
0.1357744787186337 -0.5288066808712297 -0.20732769995736797
0.137236592929267 -0.5345012397461851 -0.20590174001926523
0.13846563053952476 -0.5392880251971768 -0.2040703036147189
0.13875799981537112 -0.5404267283452804 -0.20083366888158055
0.13904569004322975 -0.5415472078046659 -0.19759026185152592
0.14050346858667664 -0.5472248803708258 -0.19597880916570093
0.14266752176560074 -0.5556533110271287 -0.195272588170734
0.14412654566481792 -0.5613358339337768 -0.1935216321879378
0.14463992255568867 -0.5633353049113817 -0.1904642040802331
nan nan nan
nan nan nan
nan nan nan
nan nan nan
nan nan nan
nan nan nan
nan nan nan
nan nan nan
nan nan nan
nan nan nan
nan nan nan
nan nan nan
0.09563549989066802 -0.372475679876828 -0.09450776349860973
0.09577036884638633 -0.37300095977846376 -0.09227306625405025
0.0959020083367604 -0.37351366174302475 -0.09003525747642196
0.09530291292228414 -0.3711803391580721 -0.08712930539228586
0.09348459109664012 -0.364098443219682 -0.08317419990120663
0.09360312918831792 -0.3645601186052811 -0.08098991780071335
0.09298823891437645 -0.36216527910428165 -0.07818885782811542
0.09309958589706228 -0.36259894696951533 -0.07601624968346408
0.09320779347567315 -0.36302038766315925 -0.07384107820062254
0.09306858664844361 -0.3624782128674496 -0.07147581857596323
0.09268115419231496 -0.36096926307717453 -0.06893765963263908
0.09302394312948573 -0.36230433784096944 -0.0669485560882122
0.0928740100646734 -0.36172038710807386 -0.06460484462806038
0.09272044556213466 -0.36112229285904024 -0.06227039349437557
0.09329986164657438 -0.3633789695139433 -0.060422319615787444
0.09412279835321699 -0.36658409637219913 -0.0587025443001073
0.09420598545367175 -0.3669080887373176 -0.056503772564311404
0.09477835192615917 -0.3691373089664395 -0.05458666313198074
0.09460920913515343 -0.368478541289707 -0.05223662239566336
0.09320362476040639 -0.36300415158915983 -0.04924493467871817
0.09253290825964627 -0.36039188329014077 -0.04669423248750765
0.09259878061347189 -0.3606484391695405 -0.04453278739841403
0.09315572628142509 -0.3628175993303854 -0.04259581356384083
0.09247390242401282 -0.36016207073340817 -0.04009825190330636
0.0925302503249905 -0.36038153131813133 -0.037938295820934546
0.09208837822116839 -0.3586605530989773 -0.03558573886429052
0.09337663164163876 -0.36367796890369325 -0.033884253767722035
0.09466303427841573 -0.36868817638184337 -0.03212379166566192
0.09644331272487175 -0.37562190314096366 -0.030460994705937525
0.09574157296878164 -0.3728888072399114 -0.02799096901668664
0.09528410889350607 -0.3711071023013448 -0.02562147102229399
0.09531950307210103 -0.3712449535255336 -0.023396140266904404
nan nan nan
nan nan nan
0.09764248401691875 -0.38029236696250074 -0.01710748935935811
0.09766554314327341 -0.3803821763301115 -0.014827233727620846
0.09768530889725509 -0.38045915885920395 -0.012546478107859613
0.09919340643923064 -0.38633281098535055 -0.01042202107414443
0.09920678473680707 -0.38638491601424746 -0.00810566388266122
0.09971414611841943 -0.38836095813014954 -0.005818051131385875
nan nan nan
0.09848078198188796 -0.38355732197186687 -0.0011465786313626157
0.09848077735800125 -0.38355730396301707 0.0011529822799365586
0.09847745187129044 -0.383544352047411 0.0034525043116077187
0.0989681339456327 -0.38545543255049775 0.005780960030781166
nan nan nan
nan nan nan
nan nan nan
0.10039912477986332 -0.3910287738775876 0.015248774020182354
0.10037541080544247 -0.39093641404515 0.01759285210101988
0.10034831207940675 -0.39083087147554474 0.019936336934626025
0.09957288995411548 -0.387810801693512 0.022113709116334524
0.0995392760576362 -0.3876798842103729 0.024438378739479648
0.09826162963934669 -0.3827037799516131 0.02642853102084019
0.0977257359525457 -0.3806166118439429 0.028577446286378056
0.09768281872878967 -0.3804494602933657 0.030858875594638315
0.09813222585951549 -0.38219978550471456 0.03330748427245107
0.0980824709965022 -0.38200600310749555 0.03559832543264864
0.09877205355781765 -0.3846917498610632 0.038174995388810494
0.09871525859241184 -0.3844705480753529 0.04048069455681172
nan nan nan
nan nan nan
nan nan nan
nan nan nan
0.09788826096361684 -0.3812496049695596 0.051726577433110515
0.09781191066495215 -0.3809522401893636 0.05401141142061468
0.09773226205826636 -0.38064202934756897 0.056294424093410775
0.09863318467614891 -0.3841508912764117 0.05916571699083794
0.09977483168792874 -0.3885973128183933 0.06223425058415138
0.09943775298964629 -0.3872844779667086 0.06440393910328236
0.10032423691581929 -0.3907371049041812 0.06738375133804202
0.10169552704726818 -0.39607792734567765 0.07074806232025561
0.10159164307588488 -0.39567332599039073 0.0731214758520663
0.10148433334041054 -0.39525538216488765 0.07549242366013562
0.10210642781460033 -0.3976782801733297 0.07842367908466824
0.10247944341552846 -0.39913108001982195 0.0811931870572637
0.10187303760630533 -0.39676928532716216 0.08318671164127012
0.10175118762616885 -0.39629471098765223 0.08556406035087359
0.10235527686988881 -0.39864748325337057 0.08856965961669454
0.10246845821774075 -0.3990882954992283 0.09117422782474853
0.10185006190093734 -0.3966798008628432 0.09312190646272264
0.10171386460391137 -0.39614934741339053 0.09549855117405603
0.10278346062558075 -0.40031514887644876 0.09903712402249017
0.10360471132981741 -0.4035137091888807 0.10239014552098241
0.10345509991456794 -0.40293101119832186 0.10480760530264928
0.1033019998977407 -0.40233472600169434 0.10722153087500677
0.10482844175149826 -0.4082798245050825 0.11142070523205193
0.10706636435049129 -0.4169959575573967 0.11647821137449689
0.10689634958386436 -0.416333793759844 0.11897626376140895
0.10672273017354057 -0.4156575908020082 0.12147030415875436
0.10415659436068356 -0.40566315168010364 0.12118086512525517
0.10159498097553916 -0.39568632625121974 0.12077578501447468
0.10141885220767513 -0.39500034999103373 0.12314600728934771
0.10385346568378828 -0.4044825434316415 0.12875300132710768
0.10532632874322109 -0.41021896630865756 0.13327703941530286
0.10513208363744683 -0.40946243157083817 0.13573417846409314
0.10327992408078153 -0.40224874637132585 0.1360081209000641
0.10308176944400238 -0.40147698501555906 0.1384174300343414
0.10217386289000567 -0.39794092245143636 0.13985532294785047
0.10314494852240094 -0.4017230512797329 0.14387744394240193
0.10316990588401884 -0.40182025378557207 0.14661668414439624
0.10342441770411658 -0.4028115118783929 0.14970062523630911
0.10320648688671065 -0.4019627273844322 0.15211307745721936
0.10298507585118803 -0.40110038833582784 0.15452040028458153
0.10415512961927924 -0.40565744688898486 0.15905268670361558
0.10392368089732665 -0.4047560136328774 0.16148204348134043
0.10392017283893103 -0.40474235064750635 0.16427181172026203
0.10529760136930683 -0.41010708057436407 0.16929441168000886
0.1071247255491946 -0.4172232594190516 0.17514008193926286
0.10686999448236993 -0.41623114741660755 0.17763850800299955
0.10661165966056678 -0.41522499971521015 0.18013094393208068
0.1063497297950741 -0.4142048502430898 0.18261730567926335
0.10608421371840898 -0.41317073340062926 0.18509750940213168
0.10740803599973195 -0.41832668077200896 0.19039512771539008
0.10713126990015188 -0.4172487479831826 0.1928999119150992
0.10685089123514478 -0.41615674518097145 0.195398191351509
0.10656690945933836 -0.41505070918871906 0.197889881780328
nan nan nan
nan nan nan
0.10658915077792108 -0.41513733340535336 0.2070646222568226
0.1062883255824467 -0.4139656966246966 0.2095500043038319
0.1059839162464067 -0.4127801005381809 0.2120283201310392
0.10789601349315857 -0.4202272276278988 0.21900577349218758
0.10757792169901025 -0.4189883418854279 0.22152146965357242
0.10703551334565768 -0.41687580082675363 0.22356873538991506
0.10737091168542803 -0.4181820911141296 0.22746259329233492
0.10704061600490412 -0.4168956743723949 0.22996588565893214
0.10670671081588633 -0.4155951995232438 0.2324614233633406
nan nan nan
0.10885263256379227 -0.4239530129181391 0.24375383960301403
0.10849878523738117 -0.4225748685718635 0.24629145570468453
0.10814127923166211 -0.42118247461049463 0.248820766630857
nan nan nan
nan nan nan
nan nan nan
nan nan nan
nan nan nan
nan nan nan
0.10848646877370813 -0.42252689911297486 0.273727402509718
0.10808934192561417 -0.4209801921588601 0.27625596326180707
0.10768857020501908 -0.41941928936361444 0.27877520840751124
0.11186718329759511 -0.43569391284944137 0.29330112191931473
nan nan nan
0.11452689071249633 -0.446052789299832 0.30795539068453076
0.11408023238525555 -0.44431316997121606 0.31062441912887295
0.11362972716715085 -0.4425585679918941 0.31328297303073666
nan nan nan
nan nan nan
nan nan nan
0.12712528719420352 -0.495120303980535 0.36823231788351457
0.1265913687856409 -0.4930408290736702 0.3711945045487307
0.12605318159913265 -0.49094472837440234 0.3741441741922118
0.1259091973363194 -0.49038394669558805 0.37827833088274493
0.12536079169156436 -0.4882480477290752 0.38121195228017707
nan nan nan
nan nan nan
nan nan nan
0.14572398937134332 -0.5675574663959193 0.4649162072683196
0.14505013335884398 -0.564932970505986 0.46831104638763116
0.14437138612179884 -0.5622894245542011 0.47169009362566605
nan nan nan
nan nan nan
nan nan nan
nan nan nan
nan nan nan
nan nan nan
nan nan nan
nan nan nan
0.19710364938530286 -0.7676680301240154 0.715863017155819
0.19606652748933556 -0.7636287070300054 0.7204533482501687
0.19502279404886524 -0.7595636336702823 0.7250193849918043
0.19578870435993137 -0.7625466573818241 0.7363920624140456
0.1965283040787695 -0.7654272081022773 0.7478248079963572
0.1967024882441545 -0.7661056106358525 0.7572419607544404
0.19667741434457378 -0.7660079542446151 0.7659965415203789
0.19716655928986293 -0.7679130480253051 0.7768751060032992
0.19763084131330008 -0.7697213071187593 0.7878020474833575
0.196489821279233 -0.7652773274937448 0.7924034756659458
0.1965641706050862 -0.7655668989993804 0.8019638116691193
0.19679099559973745 -0.7664503240266178 0.8122703227604048
0.19682216760245838 -0.766571730961489 0.8218940866222729
0.19666065394513443 -0.765942676798653 0.8308220629142745
0.19613916579948779 -0.763911614569465 0.8383135006988456
0.1959413303502233 -0.7631410963669902 0.8472729998699596
0.19606079808413793 -0.763606392470049 0.8577239369115468
0.1948188282842604 -0.7587692394659373 0.8622875254251253
0.19523183502846073 -0.7603777945319494 0.8742625624590238
0.19545170273024617 -0.7612341226925081 0.8855378470066809
0.19646549032749053 -0.765182564693292 0.9006113724129854
0.1976051882800788 -0.7696213951509135 0.9165174527169795
0.19773458829248158 -0.770125374924647 0.9279504008740525
0.19703401754534786 -0.7673968320128751 0.9356043922981895
0.19679683298109393 -0.7664730591259474 0.945557589434235
0.19542800763497872 -0.7611418363895183 0.9501368835611911
0.19531165459039518 -0.7606886712004772 0.9608783704208234
0.19517080628606576 -0.7601401032735612 0.9716461614380335
0.19624650741069943 -0.7643296825427682 0.9886922719032618
0.19697146803024315 -0.7671532177358417 1.0042506129032267
0.19612934262628087 -0.7638733558358046 1.011988022472649
0.19557495742080583 -0.7617141680179018 1.0213045827662053
0.19575312453946914 -0.7624080831302993 1.0346083824486243
0.19425571594636998 -0.7565760617114157 1.0391618043835853
0.19364138661856997 -0.7541834069513927 1.0484972041553777
0.19344794390338843 -0.7534299973186013 1.0602576491729991
0.1938107615690783 -0.7548430788296892 1.0752828375809342
0.1937023631437516 -0.7544208948371623 1.0879212591780887
0.1935639312347926 -0.7538817381488498 1.100590506550058
0.19410744958124562 -0.7559986023452211 1.1173887002554825
0.19418522570758973 -0.756301520357584 1.131779620077027
0.19254751573496953 -0.7499230611432741 1.136294792978386
0.1928470637810732 -0.7510897237555445 1.152386826750282
0.19310654480499415 -0.7521003356194506 1.1685306754580969
0.19291655002837205 -0.7513603548207276 1.1822169509106597
0.19323437388467793 -0.7525981970142013 1.1992904101334236
0.1935093221077998 -0.7536690496416808 1.2164181527726614
0.19334287514190368 -0.7530207815105321 1.2310622036091607
0.19379845488496752 -0.7547951474596809 1.2499822360140946
0.19199005159236757 -0.7477518816569955 1.254486384805854
0.192628205904352 -0.7502373286039395 1.2751871535901327
0.19295722384896866 -0.7515187688928789 1.29424413460254
0.19298438063142134 -0.7516245375772995 1.3116378050326185
0.19346926178311946 -0.7535130249783658 1.3325301921376291
0.19439677951141174 -0.757125468023453 1.356954999252124
0.19440000651300055 -0.7571380363648339 1.3753816509140322
0.19423487100097075 -0.7564948760092606 1.3929814523521398
0.1922199510160733 -0.7486472807948259 1.3974933804952345
0.1923423032037502 -0.7491238111035655 1.417759847378824
0.19241253014600496 -0.7493973269851358 1.4380786200692408
0.19278014980138136 -0.7508291110112448 1.4610980819299353
0.19320295696988107 -0.7524758362097722 1.4850685944230935
0.19344895990486555 -0.7534339543830948 1.5082187728986656
0.19397265014482018 -0.7554735932033546 1.5341040088504585
0.19453944775911106 -0.7576811241618052 1.560958006221482
0.19525536936022275 -0.7604694547024251 1.5896825330750972
0.192956370408348 -0.7515154449611197 1.5942149735425222
0.19355417211545264 -0.7538437288885302 1.6230391995299323
0.194075143441732 -0.7558727782391801 1.6519443882781744
0.19462397020471708 -0.7580103173529106 1.6818343972493035
0.19530012455236 -0.7606437646672226 1.7136230299191202
0.19599322089951957 -0.7633431967131004 1.7464105629214388
0.19639614998926072 -0.7649125019064131 1.7774595974973073
0.19681555799976214 -0.7665459882586139 1.809501582809257
0.19419908564896848 -0.7563555012652386 1.8140667476733743
0.19487408680795942 -0.758984457206288 1.849877816752509
0.1955477445275076 -0.7616081807961667 1.8867033927155137
0.1958385157689468 -0.7627406600111811 1.9208461308381979
0.19454921510393114 -0.757719165458255 1.9402258376593888
nan nan nan
0.15885847579017115 -0.6187129135288227 1.638914005479163
0.1564889939032464 -0.6094843908798367 1.6425957427542661
0.154114235062827 -0.6002353158539318 1.6462220901829088
0.15104419484231146 -0.5882782986407314 1.64228969984026
0.14765109366041354 -0.5750630420564803 1.634509872360317
0.1447033346995463 -0.5635822789055871 1.6313368556817816
0.14234503385759856 -0.554397303551636 1.6346881959646187
0.13982029313503677 -0.5445640876618879 1.6360930004284202
0.13681957384407334 -0.5328770576437577 1.631749507584856
0.13383613598581562 -0.5212573343621811 1.6273213064140966
0.13148381734153683 -0.512095658129858 1.630418963620427
0.1287503819110812 -0.5014496300176786 1.6286965888022098
0.12617428396963426 -0.4914163909666286 1.628811186074692
0.12338447393399306 -0.4805507982637033 1.625991194319571
0.12067826961748114 -0.4700108283379881 1.6240541106440227
0.1181912610829168 -0.46032456961784396 1.6249249144365732
0.11563740015470735 -0.45037793801521553 1.6247731835674104
0.11308796191358171 -0.44044853164150644 1.6245569630264018
0.11073998516192118 -0.4313037659644351 1.6271701937485599
0.10813127331011081 -0.4211435041190257 1.6258642842311433
0.10546722780102448 -0.41076773190730365 1.6235240819491494
0.10336669384197093 -0.4025866922787423 1.6298353965217287
0.1013115292411207 -0.394582354633876 1.63707356637596
nan nan nan
nan nan nan
nan nan nan
nan nan nan
0.12407366487787208 -0.4832350197680585 2.2861953634074936
0.12077001161356 -0.47036813982171327 2.2890539564737016
0.11746228587284602 -0.4574853986269998 2.2918353605250545
0.1139066936975268 -0.4436372814071306 2.289636741018748
0.11045614482546619 -0.4301982808420861 2.2893127700892415
0.10719416281125745 -0.41749369969933675 2.2928360525950353
0.10383668047962037 -0.40441716937763994 2.2943166252639187
0.10039232336217245 -0.39100228410463267 2.2937479324167347
0.09707816249129575 -0.37809447973269744 2.2960534351347563
0.09368020842462108 -0.3648603224101363 2.296307799700091
0.09032363458521891 -0.3517873304320801 2.2974688680880906
0.08696686757301587 -0.33871358609563795 2.2985506503594935
0.08357404040963981 -0.32549939674306694 2.2985635318199296
0.08004592393853438 -0.3117582903258686 2.2945343780156926
0.07669785627014447 -0.2987184276965852 2.2953737536879117
0.0734451193490284 -0.28604985381410175 2.2991097533867197
0.07021442568669975 -0.2734671327562799 2.3037636862601594
0.06688630958722144 -0.26050497635745967 2.305364361502592
0.06355593801957049 -0.2475340354900894 2.3068872977282386
0.060223423286953924 -0.23455474754628244 2.3083324435822825
0.05683985446992942 -0.22137661707201262 2.3077093948104554
0.05336782684635641 -0.20785396229298245 2.303023542600532
0.049976159093099354 -0.1946442885446884 2.3012422123932796
0.04667222458782973 -0.18177631323713317 2.3033672260185907
0.04334507796052469 -0.16881793268313278 2.3044181938875217
0.04001646969713321 -0.15585385943242822 2.305391454645313
0.036670634673141383 -0.14282269237896186 2.305288849306259
0.0333264493687698 -0.12979795055919907 2.3051080040354273
0.029984023446604995 -0.11678006108071524 2.304848754402493
0.02665501867178385 -0.10381444351995309 2.3055100251994216
0.02333522053459349 -0.09088468344532137 2.3070926535929877
0.020003087381472183 -0.07790688165552713 2.307598635974421
0.0166702797057584 -0.06492645277368536 2.3080268039972687
0.013336909892807 -0.051943834511853894 2.308377143223309
0.009998758443392746 -0.03894259300557385 2.307649866049523
0.006663156748679416 -0.025951282138197064 2.3068443320858827
0.0033331076962813265 -0.012981597384803537 2.3079611724466274
5.7534647057990716e-08 -2.2408265554002263e-07 2.3080000877380256
-0.007544603294593132 0.03955019551692899 2.306648542837624
-0.010054371430277384 0.05270686083021416 2.3063758443965288
-0.012563800523265204 0.0658617488194428 2.30602537283051
-0.015072805953288467 0.07901441588963473 2.305597139957792
-0.01758130311436536 0.0921644185207012 2.3050911602187836
-0.020089207417653375 0.10531131328240087 2.304507450675589
-0.02262581868063585 0.1186086951968745 2.306841950675037
-0.02520083057259102 0.13210738025805324 2.312091799116353
-0.027788028088072955 0.14566994459480961 2.317259635160657
-0.030335105034268107 0.1590221895419859 2.318354410995814
-0.032814814632562236 0.17202128248409232 2.314384005889388
-0.035332573762320206 0.18521983805530748 2.3133280530926754
-0.0378491414450381 0.19841214784241143 2.312194092736137
-0.04039921222990568 0.21178008704152085 2.3129733862945523
-0.042915308569038794 0.2249699259590236 2.3116824167751537
-0.04542995776430653 0.23815217868271568 2.3103134951883066
-0.04796371195487945 0.251434583299114 2.3098605115903914
-0.050498016772960945 0.2647198744059969 2.3093285950954994
-0.0530327752322667 0.2780075435834575 2.3087172228562425
-0.055567905277852325 0.2912971606844133 2.3080265854975357
-0.058078363185249844 0.30445744190764845 2.3062656215362436
-0.06063893800949035 0.317880445209494 2.3064075797615726
-0.06320177846709445 0.33131532537735897 2.306468536159877
-0.06576678783103711 0.34476157535042085 2.3064481194445525
-0.06833388906224945 0.3582187912757378 2.306346668506047
-0.07087264090589239 0.3715273945070037 2.3051768486390523
-0.07353680632802562 0.3854934387402802 2.307870993333886
-0.07637163911536927 0.4003541526332946 2.3154017485173464
-0.0788897712763984 0.4135546637029147 2.312995952427631
-0.08154374459266739 0.4274672790461727 2.314443223088177
-0.08406074656518109 0.44066186546011366 2.3118771595939602
-0.0865749139316354 0.45384159234871113 2.3092331374653874
-0.08919964826131375 0.46760093155653526 2.3094494972728237
-0.09182776899827402 0.48137802293301163 2.309580946424246
-0.0944192157774273 0.49496286269001777 2.3086501206609853
-0.09713480062136114 0.5091984569720076 2.3105639801695226
-0.09964731866500759 0.5223695378076618 2.307514815203737
-0.10258788013131191 0.5377845008455767 2.314119196862013
-0.10528096667333371 0.5519021548986804 2.31478806461602
-0.10779794365202484 0.565096610290415 2.311486378717585
-0.11035759259187244 0.578514759936298 2.3090756556272276
-0.1130577328472934 0.5926693908499687 2.3094870302391803
-0.11585929660134538 0.6073557023629019 2.3117404991937693
-0.11866957882468285 0.622087717692376 2.313898239757724
-0.12153896494420216 0.6371295664959944 2.3169224650502147
-0.12405799027538464 0.6503347597275275 2.3131169077451355
-0.12673065485346338 0.6643453580965549 2.3121127135874104
-0.12924435909501938 0.6775226571994145 2.30814634688967
-0.13186309477466732 0.6912505503825404 2.3060151485219973
-0.13464873119511342 0.7058533678887539 2.3066634361522627
-0.13744022912055137 0.7204869124801965 2.3072168972237543
-0.1402374624106239 0.735150522905958 2.3076749633741716
-0.14315798910914174 0.750460460013131 2.3099359980407255
-0.14566904786475313 0.7636238909930078 2.305460584901024
-0.14866240630180874 0.7793156254441275 2.3084729953797978
-0.15166721609336312 0.7950673899977821 2.311377364626688
-0.1543685696381498 0.8092283811970449 2.309463854390791
-0.15707086694024947 0.8233943197453983 2.307460760742506
-0.16009901962545744 0.8392684520328997 2.3100575881568086
-0.16313808689494483 0.8551998005749051 2.312544064207256
-0.1661209127320942 0.8708363212037299 2.3139860793370044
-0.16904431372953954 0.8861613259135479 2.314389328389633
-0.17155978175847825 0.8993478711136657 2.3091116228799478
-0.17484029790979053 0.9165449390196517 2.3139577943264458
-0.178137136538908 0.9338275723507912 2.3186783813230845
-0.18087338923888377 0.948171511328381 2.3158879329570303
-0.1834633761570559 0.961748698226121 2.311164334960836
-0.18627146274905163 0.9764692036530253 2.309113797455161
-0.18930654058468102 0.9923796388503624 2.3097156154986282
-0.192501373745598 1.0091275407909175 2.312034749469733
-0.19501388422863597 1.022298581992474 2.3060301492926056
-0.19798824839198714 1.0378907449738453 2.305402247486285
-0.201125912752278 1.0543389575664062 2.3064807117471484
-0.204592770557322 1.072512862630062 2.311059049110959
-0.2076711993005913 1.0886505512436555 2.3109914462181873
-0.21042833960627144 1.1031039868849175 2.3072142140904566
-0.21351618353605986 1.1192910316346945 2.306930252587874
-0.21703028313509232 1.137712586855139 2.3110026229179272
-0.21954125697858387 1.1508755727100952 2.3042378891606057
-0.22273199818137626 1.167602023854955 2.3045052906349786
-0.22567013109884979 1.183004255994063 2.3019943918057084
-0.2290494133950752 1.2007190741632825 2.3037956246349593
-0.23270655385343222 1.2198904758279068 2.3081066172802127
-0.23557307608033068 1.23491731158065 2.304367496599548
-0.2378951174046385 1.247089878485603 2.2952780349670516
-0.24176333568293 1.2673677888322246 2.3009505509091257
-0.24426295472081133 1.2804712507116442 2.293419509254913
-0.24899925231897066 1.3052997922159812 2.3066069257654336
-0.25282763642093825 1.325368884497511 2.3109418294651407
-0.2563875281029863 1.3440304902236846 2.312534685476969
-0.25986303074877987 1.3622497131295792 2.3131269027798234
-0.26325115813981737 1.380010898909596 2.312726795752064
-0.26713819878796863 1.4003874795744544 2.316452513098224
-0.2708439173329275 1.4198135364870648 2.318317861928188
-0.27336194366375577 1.4330134927753435 2.3098853201324996
-0.2769814970434446 1.451987856073311 2.31064096811483
-0.28040810526352333 1.4699507654235155 2.309571509206339
-0.28363607775831956 1.4868723898360217 2.306695129195434
-0.2874894979272801 1.507072725776877 2.308693570008864
-0.2913567861631765 1.5273457606705256 2.3105305946027594
-0.2947101216114036 1.5449245606991866 2.3080734282249713
-0.2982807456545528 1.5636424274325116 2.3071323772615164
-0.3007861383112862 1.5767761556818811 2.2978497566587124
-0.3046879745370453 1.5972302974807484 2.2991034185187433
-0.30860263437067365 1.6177516629862383 2.3001923722552386
-0.3125298905547974 1.6383390608734774 2.3011158668114686
-0.31646951463160955 1.6589912935247004 2.3018731596740256
-0.32053299175494515 1.6802927865828794 2.3032662702731757
-0.32472273275316366 1.7022561780528576 2.305284237174793
-0.3289275899701638 1.7242988115167412 2.307119598109839
-0.33143245200177374 1.7374297581318008 2.2968872319167732
-0.33565394990468034 1.7595596251261216 2.2984086998677826
-0.33930964867960806 1.7787234692215437 2.2958196635096733
-0.3428541056654908 1.7973041634369002 2.292299788638483
-0.34699101341932337 1.8189905933406214 2.2925269061302953
-0.3514956885605208 1.8426049274040557 2.2948973361094653
-0.356375443985556 1.8681855011730233 2.2993771510169956
-0.3610362077084566 1.8926180802366614 2.302097786849885
-0.3654726010348966 1.9158744684918854 2.3030801374726657
-0.3679724515092179 1.9289791436036108 2.291715309374174
-0.37291492323702324 1.9548884877452282 2.2953845232324643
-0.37775408542758526 1.9802562643269364 2.2980721268954967
-0.3819897069263026 2.0024601698033226 2.2967974968051172
-0.3863603929068842 2.0253721080889293 2.2960812831146553
-0.3911203864756513 2.050324868221325 2.2973918573886625
-0.39627658204397 2.077354591970574 2.300692889053712
-0.4015806891855553 2.105159695340658 2.3044836895443037
-0.40408145808473533 2.118269185004098 2.291999848011215
-0.40966921029437436 2.1475612078927973 2.296822374647988
-0.41489104093453016 2.1749350027379757 2.2992143436177934
-0.4188242320243717 2.195553512490524 2.294197131095067
-0.42328655701308854 2.218945839279967 2.2918620018710714
-0.4290809860484196 2.249321300030905 2.29640858615709
-0.43410099696063814 2.275637118811946 2.296448687743517
-0.43806472510718625 2.2964157094217774 2.290655626370569
-0.44054983236691175 2.3094430978960157 2.2770413775923006
-0.445591854502014 2.3358743035482585 2.276489293057605
-0.4516001830269668 2.3673710646917003 2.2805122309898467
-0.45790585642312215 2.4004265622368886 2.2856050079551213
-0.4639625465862356 2.4321768439658515 2.289025647201615
-0.4694886922659168 2.461145914114716 2.2894491738820473
-0.4754484540648263 2.4923880795643054 2.291617510706789
-0.48212760328774756 2.5274014059565086 2.296822869006196
-0.48461867828674743 2.5404600784155877 2.2818430075062244
-0.4911890133476102 2.574902980994055 2.285845899049489
-0.4975004034743667 2.607988446690538 2.288212274397278
-0.5032627581445634 2.6381957677311947 2.287670104788564
-0.5091839394112229 2.6692356869480722 2.287491396391216
-0.5158418510320246 2.704137681931142 2.2902201256482275
-0.522377963120767 2.7384011814070632 2.2919775302718564
-0.5287897365376726 2.772012874738984 2.2927759245930353
-0.5312756212568316 2.7850443387982997 2.2763500716641603
-0.5374134591258787 2.8172200116989536 2.2753855228054327
-0.5437144465626522 2.8502509445848085 2.2747337032548365
-0.5516615011103597 2.891910863453012 2.280503667079693
-0.559936877358879 2.9352919049505344 2.287072629418158
-0.5676471257758902 2.9757104426084946 2.290792186394996
-0.575083933424084 3.014695553557754 2.2929131853909213
-0.582393544383847 3.053013876115349 2.2940558805999984
-0.5848799180554038 3.0660479033528962 2.2759688239097424
-0.592364025084829 3.105280966341843 2.2770925032772533
-0.6004808697853043 3.147830956361121 2.280147513943763
-0.6089307003184792 3.192126519245319 2.2839252971736603
-0.617254954969251 3.235763790300601 2.2866855598393436
-0.6252963712919295 3.2779183709162423 2.2878749162765617
-0.6333610027202146 3.320194649377328 2.2886422883829014
-0.6412925199631008 3.361773118841303 2.2884307394700136
-0.6492446759403757 3.403459780339825 2.2878038514191004
-0.6517231195538215 3.4164522367569448 2.2676451833550377
-0.6609546026686677 3.464845365970916 2.27068536864092
-0.6673677623529845 3.498464326371099 2.2635736913337627
-0.6812477406471807 3.571225720691143 2.2811205132477825
-0.6891346578365929 3.6125703884870792 2.277873231736437
-0.698476031837329 3.661539585898776 2.278907573199038
-0.7047944511457852 3.6946618998561536 2.2696229496132476
-0.7201317833936357 3.7750630111439145 2.2886762374964715
-0.7226099810727328 3.7880541783280304 2.2663207630314113
-0.7294404463147461 3.8238607310710773 2.2574334419097957
-0.7450583879863658 3.905732848472826 2.275016165171475
-0.7524166949625967 3.9443064444884146 2.266635690174965
-0.7682946125204954 4.027541403212701 2.2831734778548998
-0.774871960754651 4.062021070133056 2.2713611906317612
-0.7921586811248787 4.1526412318291595 2.2901790906651525
-0.799595474872486 4.1916262699089915 2.279727737067478
-0.8020625957732076 4.204559370587376 2.254909833419058
-0.8203001014162826 4.300163723229963 2.2738050845789166
-0.8285979492749588 4.343662565033291 2.264297753220102
nan nan nan
nan nan nan
nan nan nan
-0.13076234858707847 0.685480236790989 0.33710979844270605
-0.13112695758472206 0.6873915840919624 0.33305178900470966
-0.1314871448601742 0.6892797519134637 0.32898254875259625
-0.12963134809909774 0.6795513246026654 0.3194522622904168
-0.12861217460537128 0.6742086300475467 0.3121179968167251
-0.1279235046240443 0.6705984955786289 0.30567511055562757
-0.1282539569787142 0.6723307874866196 0.3017056069047072
-0.12858008449142808 0.6740404077791176 0.297725929461899
-0.1302804983312912 0.6829542892915459 0.296877759046804
-0.13008308581012126 0.6819194166143626 0.29167333033306597
-0.13039826622764392 0.6835716502241883 0.28763713733059987
-0.1296675358697706 0.6797410275399236 0.2813315380028755
-0.1296234922031183 0.6795101425537472 0.27656594790488553
-0.1300966318478992 0.6819904274311913 0.272910078926293
-0.1314401167786441 0.6890332220766152 0.27103629987351907
-0.1319080036981201 0.6914859712037099 0.2673134149008923
-0.1318455211484551 0.69115842620775 0.2625219402211256
-0.1317770816493063 0.6907996537890125 0.2577433963521243
-0.13205531388720546 0.6922581982582638 0.2536552784874184
-0.13356580818119104 0.7001764866455603 0.25189092035523447
-0.1343687475834802 0.7043856423968695 0.24873060029853208
-0.13463712917994036 0.705792547995306 0.24456231865794326
-0.1341900286933578 0.7034487651654351 0.2391189323041135
-0.13622872064285377 0.7141359626300305 0.2380683529234106
-0.1389832422273771 0.7285756704542409 0.23812208273491586
-0.14031246215502932 0.7355436853346679 0.23561184414875616
-0.1405664688424894 0.736875235021164 0.23125958796241705
-0.1408157354987148 0.7381819365937478 0.22689953348905195
-0.14106025371820347 0.7394637459892344 0.22253182775372707
-0.1413000152555751 0.7407206199838263 0.2181566180395162
nan nan nan
nan nan nan
-1.6574020000690888 8.688405552066426 2.3927387091816543
-1.6599776267160042 8.701907459785964 2.34133547309045
-1.662497277383269 8.71511593114404 2.2898532850033333
-1.7116589885779139 8.972830646388038 2.3010726054251265
-1.7623554099067444 9.238590593899232 2.311229191461695
-1.8158632773419126 9.519088658028254 2.3218138856668946
-1.873466384680897 9.821054721541783 2.334159577913268
-1.996020846952212 10.463507711452632 2.4217098264794568
-1.9986222881917628 10.477144944005836 2.3598123027477778
-2.0286347852533657 10.634475963330381 2.329387437776829
-2.0311352193724703 10.647583698015207 2.266480764588505
-2.030261632260273 10.643004193998971 2.1999159149055454
-2.0305988924259566 10.644772173702084 2.134834933522861
-0.14816428427443148 0.7767043783308195 0.1510055133523208
-0.14832609728867968 0.7775526318573219 0.14641135567461483
-0.14848290860985083 0.7783746655904981 0.14181226087068863
nan nan nan
-0.14711810887817747 0.7712201348456122 0.13111739671692066
-0.14725829900389856 0.7719550372209014 0.12655599534100767
-0.14739352344368759 0.7726639085589286 0.12199032637997433
-0.14789443562162274 0.7752897821536802 0.1177155664845752
nan nan nan
nan nan nan
nan nan nan
nan nan nan
nan nan nan
nan nan nan
nan nan nan
nan nan nan
nan nan nan
nan nan nan
nan nan nan
nan nan nan
nan nan nan
nan nan nan
nan nan nan
nan nan nan
nan nan nan
nan nan nan
nan nan nan
nan nan nan
nan nan nan
nan nan nan
-0.1429569300317169 0.7494064714186207 0.011057767201520245
-0.142966551817217 0.7494569105845906 0.006627345032519488
-0.14297135263846655 0.7494820773709208 0.0021966993833195374
nan nan nan
nan nan nan
nan nan nan
-0.1376967554365692 0.7218316705221486 -0.014955400428100214
-0.13767816063304814 0.7217341931484365 -0.019222371175141376
-0.13765492319471445 0.7216123782307364 -0.023488693726062042
-0.1396867641352034 0.7322636614484013 -0.028169592704183358
-0.13965375723865597 0.7320906332372568 -0.032498011029925666
-0.1396160410883526 0.7318929182533938 -0.03682533349270283
-0.13826395064263083 0.724805011918651 -0.04076527657537513
-0.13840429261962103 0.72554071032617 -0.045110348682303195
-0.13835287388142906 0.7252711638610585 -0.04939873758260316
nan nan nan
-0.1402908980087138 0.7354306421209119 -0.05883209351942032
-0.14022451664614663 0.7350826588319703 -0.06317871697194934
-0.14015340678328883 0.734709887876442 -0.0675232099797551
-0.14101017694074067 0.7392012343286237 -0.07234389048152177
-0.14148832739199535 0.7417077867734929 -0.07701699369784468
-0.14140213860545037 0.7412559693317907 -0.08140041888506391
-0.1381461054033015 0.7241872455399264 -0.08385978118203445
nan nan nan
nan nan nan
-0.13710827264680403 0.7187467357038738 -0.09616868301293328
-0.13700131849896233 0.718186062426126 -0.10041604738292081
-0.13688974454005026 0.7176011712506375 -0.1046600256309905
-0.1401094962340326 0.7344797007160933 -0.11155658485659238
-0.14239291220439051 0.7464497864247553 -0.11788963214170989
-0.14189224605187079 0.7438252025403972 -0.12198232890992464
-0.13935445791160522 0.7305216512191531 -0.1242355198178121
-0.13718590298186464 0.719153688171725 -0.12667658658440187
-0.13704575146443893 0.7184189881882077 -0.13092584234137597
-0.1387435313890561 0.7273190622333795 -0.13698994783117927
-0.14098481541260247 0.7390682845422257 -0.1437265144903986
-0.140826047587606 0.7382359944568202 -0.14809321108638165
nan nan nan
nan nan nan
nan nan nan
nan nan nan
-0.12625732904991144 0.6618640973406578 -0.15321874044963443
-0.12608848091825017 0.6609789644371613 -0.1571288721516822
-0.12591538096648688 0.6600715427121364 -0.16103370532294944
-0.1239183835426361 0.6496029156053003 -0.16254623484980138
-0.12373942547441438 0.6486647845583606 -0.16638372535705187
-0.12573350266150496 0.6591181032479994 -0.17321500528009995
-0.1255429051567635 0.6581189561380425 -0.17710856645439033
-0.12480543809286988 0.6542530184040876 -0.1802126167653392
-0.12460724204043777 0.6532140383121866 -0.18407729923264465
-0.12422454956174395 0.6512078940837622 -0.18766340726142827
-0.12527823276716385 0.6567314948829092 -0.19345562836420258
-0.12704223737622947 0.6659787308815611 -0.2004535462613368
-0.12736011359533367 0.6676450963781756 -0.20525446713108692
-0.12534399921229794 0.6570762546617794 -0.20625145025384767
-0.12333007025006373 0.6465188693224267 -0.20713049532115915
