VERSION .7
FIELDS x y z
SIZE 4 4 4
TYPE F F F
COUNT 1 1 1
WIDTH 850
HEIGHT 1
VIEWPOINT 0 0 0 1 0 0 0
POINTS 850
DATA ascii
0.6089059098817785 -0.5718007095406616 1.5525612972864251
0.6105230252148396 -0.5733192819175219 1.578586527670028
0.6126158981458516 -0.5752846204164757 1.6064614017916359
0.6128223443911137 -0.5754784863448681 1.6299782987777789
0.6059121791693811 -0.5689894092761351 1.6348325454868795
0.6077997243879714 -0.5707619322189482 1.6637701449537667
0.6101080608426585 -0.5729296044343565 1.6945854267000438
0.6121756899234976 -0.5748712373801104 1.7254927118263972
0.6136867034990018 -0.5762901735746476 1.7555874714097413
0.6143405357998795 -0.5769041629734942 1.7839552933028653
0.6156972521868211 -0.5781782044634993 1.815111906122359
0.6080033526432856 -0.5709531518786388 1.8199859328435903
0.6092842805873043 -0.5721560232835207 1.8521431947879752
0.6112011086288035 -0.5739560446273921 1.8871229159668161
0.6137183381226344 -0.5763198804635867 1.9249432441964505
0.6150709507958789 -0.5775900683099242 1.9601106364476995
0.6167148265594344 -0.5791337704037012 1.9972049243375314
0.6135782577153975 -0.5761883362053508 2.0196218864666857
nan nan nan
0.4729530131452491 -0.44413244165810994 1.6091261203716705
0.466133475178385 -0.437728469246429 1.612866522737715
0.45929821875995785 -0.43130973622623575 1.616552537754073
0.45036125703214336 -0.42291737055171924 1.6127134368083083
0.44301328259745754 -0.4160171632664003 1.6144020668855739
0.4376890160652004 -0.41101734419497876 1.6235313003130056
0.4308090943492487 -0.40455666766856896 1.62699054760012
0.4207310261287222 -0.39509273167160175 1.6181505874954807
0.4138741673340506 -0.38865371266984067 1.6214748385406788
0.40439738499071853 -0.37975442169542434 1.614341473425197
0.3968582269337646 -0.3726746810387071 1.6146928862254883
0.39001640738055576 -0.3662497848247197 1.617827025392184
0.38248685140123545 -0.3591790611190861 1.6180528811520285
0.3738644110777324 -0.35108205070263554 1.6134483744300159
0.36572751420434824 -0.34344099593513694 1.6106709129854808
0.3589032448742286 -0.33703258047762136 1.6135571334129566
0.3520668729950093 -0.3306127999700214 1.6163889432027154
0.34542324889421927 -0.3243740216742241 1.6201259675843982
0.3379575887421166 -0.31736330014420877 1.6199660524530284
0.3305049741633517 -0.3103648292229818 1.6197420389634796
0.32325805086798753 -0.30355951527377 1.6204183648048343
0.315263274494562 -0.2960519205390906 1.61716987701216
0.3069384482746865 -0.28823438836855914 1.6119136933878673
0.3006503271424191 -0.2823294495812082 1.617238560439566
0.29379935364966836 -0.2758959572458165 1.619606266737309
0.28796999402692847 -0.27042182419117505 1.6277500298881282
0.3923300141699885 -0.3684224062138807 2.2752112796535147
0.38269224205488905 -0.35937193578097754 2.278298210534711
0.3730415652037204 -0.3503093469942843 2.281308315094746
0.3641554033355703 -0.34196468556327936 2.2891264037100933
0.35430792901153574 -0.3327172916485781 2.2910105043438094
0.34460391854343597 -0.3236046192619252 2.293794285774759
0.3340303270926657 -0.31367535597867446 2.290617242411667
0.3237729736485263 -0.3040430599503653 2.2893127700892415
0.3142113361461746 -0.29506408467768835 2.2928360525950353
0.3045002740286441 -0.2859447903514509 2.2953003946970374
0.29452625842353436 -0.2765785662642538 2.2957177521875463
0.28455895682224663 -0.2672186470463099 2.2960534351347563
0.2747167782790065 -0.25797622620079164 2.297294773891534
0.26498750792249043 -0.24883983320002587 2.299444428065215
0.25503000535965104 -0.23948911589168181 2.2995392026201382
0.24518611733006662 -0.2302450897316335 2.3005425856202617
0.23534231375385736 -0.22100114287858325 2.30146647608677
0.22559604810908626 -0.21184879023984157 2.3033024038322436
0.2159350658639924 -0.20277652404410546 2.306052677272613
0.20590368637399692 -0.19335643168342412 2.304756188032138
0.19614399145573402 -0.18419146811746595 2.3063575528735187
0.18605662246574053 -0.174718798116617 2.303905518323729
0.17607268959121578 -0.16534326109355219 2.3023651489113957
0.1662517611273314 -0.1561207954008026 2.302733624632809
0.15677183855793644 -0.1472185555578308 2.3080020905700747
0.14718948239747975 -0.13822012417015667 2.3122006647238473
0.13710326605947806 -0.1287485365815755 2.3083505882090822
0.1272745415377426 -0.11951874990320478 2.3084067502129386
0.11750071921199394 -0.11034051981857232 2.309381695519725
0.1077694638647711 -0.10120226278745939 2.311276654575624
0.09785689892393758 -0.09189374471504166 2.309101210291731
0.08800447702796223 -0.08264170472103595 2.307844679167659
0.0782336961068015 -0.07346633070541703 2.3085068095079966
0.06846027707310792 -0.06428847933723239 2.3090910948652974
0.058659151709013584 -0.055084609992994596 2.308597956618731
0.048885676877936206 -0.045906706227578906 2.3090263100625346
0.03911055357665652 -0.03672725444560427 2.309376801005262
0.029359510117896094 -0.027570415140885457 2.3116492075889497
0.01960747704095984 -0.018412646522842652 2.315843788042147
0.009816687992120344 -0.009218483624708994 2.3189609049605333
1.6945137402406583e-07 -1.59125431905256e-07 2.3190000057220344
-0.031157935384706688 0.025776085838190885 2.3166470102031878
-0.041451170339713135 0.03429139034977095 2.3123742632586204
-0.05168483087645104 0.04275741061641983 2.3070251162684463
-0.06197948081683193 0.05127388570570414 2.305597139957792
-0.07232578043331091 0.05983308912304295 2.3060904986425603
-0.08264277086385284 0.06836804587309676 2.305506536040665
-0.09295697450378644 0.076900697189461 2.3048448296277266
-0.10331278382369069 0.08546776771765807 2.305103641887941
-0.1137232599620321 0.09408006257112377 2.306282173644166
-0.12409408004811774 0.10265955108507024 2.3063837155686056
-0.13452777409346744 0.1112910534616481 2.307403752329862
-0.14497479167177701 0.1199335780232649 2.3083444664875197
-0.1555018102455279 0.12864228516406015 2.3102015877444506
-0.1661933426380378 0.1374870899718396 2.313968997912847
-0.1765440014236643 0.14604989960752188 2.3126774726999586
-0.18712995916423208 0.15480736546754376 2.3142915990132646
-0.1974817083726078 0.16337107717937574 2.312842280243655
-0.20800542875683614 0.1720770558205065 2.313301582305898
-0.21853991252117377 0.18079193870404553 2.313680185216113
-0.22928116428535938 0.18967787495318364 2.3159614913904676
-0.24035807718705354 0.19884149424473574 2.32113207091573
-0.2507395354733395 0.2074297834432636 2.3192814848627967
-0.2616699810829015 0.21647223445303224 2.322299947589078
-0.27182448905926276 0.2248727740270296 2.3183116306551708
-0.28147076370704033 0.2328528664262815 2.3102975326388595
-0.2920525741221243 0.24160690132027982 2.310110987431497
-0.30354634414587217 0.2511153748143858 2.3167434552104784
-0.3145750036965477 0.260239075462341 2.319341130685166
-0.3254991175824429 0.2692762884147505 2.320866530408378
-0.3358779522355906 0.2778624071551865 2.318374286199523
-0.34624546077378526 0.28643915611846504 2.315803864267198
-0.3564501382528355 0.2948811995145804 2.3121748562789444
-0.3672562182812316 0.3038207663680059 2.31238774868432
-0.37791625025627956 0.3126395117641326 2.311537247559386
-0.3882524588423176 0.3211903671550817 2.3086501206609853
-0.3985755751966376 0.3297303917100203 2.3056851439469632
-0.4088852512142162 0.33825929745142824 2.3026424173990754
-0.41935856231255636 0.34692357390452727 2.300495341846201
-0.4307350999873914 0.35633506436521717 2.3031265820820073
-0.442707605772106 0.3662395825239047 2.3085751664077994
-0.4543624625323485 0.375881318555981 2.3119826114445265
-0.46567320144934393 0.3852383755502304 2.313357088413144
-0.47661333696558067 0.3942888427479501 2.312706702376634
-0.4873598957953316 0.4031791693835458 2.3110046409786507
-0.49769187605333753 0.41172652679733557 2.307292704647856
-0.5080070736813381 0.4202600004121423 2.303502964274762
-0.5189541084358329 0.4293161751561214 2.302514911240081
-0.5307918456585166 0.43910920306424167 2.3052719227727034
-0.5424468232378978 0.4487510390466021 2.3069715350825564
-0.5534473463086836 0.4578514631740861 2.3057087605080024
-0.5649217371348366 0.4673439048016864 2.306263964688338
-0.5766574012972107 0.4770524905305729 2.3076749633741716
-0.5869729778816504 0.48558627764541046 2.3032900954885127
-0.5989921177065158 0.4955293748372422 2.305460584901024
-0.6100487065885936 0.5046761806375363 2.30374457307338
-0.6213647519195006 0.5140376274791484 2.30288328880199
-0.6332114037200368 0.5238380301674364 2.3038128225939243
-0.6456134083796515 0.5340978606961554 2.3065209262865283
-0.6577936606663022 0.5441742417077686 2.308181692515895
-0.6681101365293131 0.5527087727705396 2.3031853353531515
-0.6806094161409817 0.5630490761381388 2.30558193515218
-0.6925928331654395 0.5729626208593618 2.3060038010543398
-0.7046029871976784 0.5828982843570413 2.3063228211866478
-0.7163511602073043 0.5926172183043357 2.3056110147433113
-0.728993508001526 0.6030758779657223 2.3075752948501367
-0.7422704060953911 0.6140594832883123 2.311272666154866
-0.7544026532522724 0.6240961510028045 2.311164334960836
-0.7647308455695667 0.6326403747595105 2.3054398370341724
-0.7756508356916648 0.6416741762378187 2.301470063735613
-0.7874996171977122 0.6514763407717292 2.300154718425411
-0.8009475468175409 0.6626014356776257 2.303295707036262
-0.8141290268844792 0.6735061043433992 2.305402247486285
-0.8276813362277362 0.6847175496662163 2.3082940675450776
-0.8412868670450502 0.6959730236214442 2.311059049110959
-0.8516131233707172 0.7045156457865892 2.3046797529577896
-0.8649455804455197 0.7155452134954556 2.3063151310808467
-0.8783212054492592 0.7266104928208972 2.307826779245106
-0.8903585848199121 0.7365686790772662 2.305638556184305
-0.9013582499202332 0.7456683934298544 2.3006723832588514
-0.9148158549627283 0.7568014925414882 2.3018390490633416
-0.9286714281427977 0.7682638195287282 2.303766391421602
-0.942213862768536 0.7794670957747678 2.3046789178143614
-0.9525098706056214 0.7879846942139013 2.2975390962702287
-0.9668329511553597 0.7998337769326037 2.299978124715004
-0.9800910960231984 0.8108018682374056 2.2996534269828675
-0.9926251002996198 0.8211708983459881 2.2974616639991914
-1.0063146231675981 0.8324958565684152 2.297766292106976
-1.0204250148586191 0.8441689877610798 2.298808631986825
-1.0334129342013347 0.8549135290698617 2.297124511614025
-1.0483818446748359 0.8672968887663629 2.2996250232481428
-1.058653449678667 0.8757942994261428 2.291685155433175
-1.0752899041106774 0.8895571714581944 2.297342696682567
-1.0912047296206158 0.9027230601276135 2.301122940890932
-1.105151230599178 0.9142606091316556 2.300497578774153
-1.1183058808630018 0.9251430822539964 2.2980482766167034
-1.13230626253296 0.9367252052424603 2.297162903951183
-1.1475932620623919 0.9493717110912536 2.2986614601398503
-1.1578588830165704 0.9578641713146326 2.2899739050074257
-1.1744823658566759 0.9716163123126067 2.2937019488779486
-1.190317733410077 0.9847164676436982 2.295597079241085
-1.2036061278533703 0.9957095835736512 2.292372204211286
-1.2190936426448689 1.0085219700734918 2.2931398127319174
-1.2350696580585885 1.0217384794336857 2.2945706696881163
-1.2502095228137022 1.0342632648114087 2.294204726380931
-1.2667332848285735 1.0479329095682375 2.2961268985497205
-1.276985556561983 1.0564143263557737 2.2865414913127333
-1.2944876704463635 1.070893334167537 2.2897791706580746
-1.3093051212281739 1.0831513955101566 2.2880128081668873
-1.3246133282848456 1.095815445751279 2.286899514326381
-1.3422882857728178 1.1104374422273344 2.289611404266237
-1.3609720808703432 1.1258940217558153 2.2937180594899798
-1.3797377158124002 1.14141830509174 2.2976200100648123
-1.389994762912516 1.149903672406184 2.2871829234992327
-1.4054923184394306 1.162724365324751 2.285265747805314
-1.4200511549044696 1.174768482298279 2.2816360895472383
-1.43901339547778 1.1904554119573594 2.2848319880099965
-1.4580519416007693 1.2062054670570115 2.2878187225183138
-1.4751872236850718 1.2203810052116797 2.287527507191759
-1.4953565794852588 1.2370665474335116 2.2916335185674814
-1.5055848916594696 1.245528143149885 2.2803251751974405
-1.5278763839014502 1.2639692693155384 2.2870732698184093
-1.5482461639508163 1.2808206168960088 2.2905547242325257
-1.5661409581499033 1.2956244781158646 2.290066359921423
-1.583568432103836 1.310041738407119 2.288640974887354
-1.6015539399834762 1.3249206445100121 2.287770040521165
-1.622191914040783 1.3419938614693299 2.2903858298461595
-1.6471046780692973 1.3626034922467518 2.2986253542542516
-1.6573617154805418 1.3710888515458646 2.286173248476005
-1.6787189867403238 1.3887571229016062 2.2888549013857458
-1.6953453571097745 1.402511652671601 2.2848082520506616
-1.7130674573967684 1.4171726490627417 2.2820206532617813
-1.7324440546098618 1.4332023643455423 2.281179085549051
-1.755134954987858 1.451973909657115 2.284370703450887
-1.777365104580507 1.4703642887698847 2.2865925601674353
-1.7875661070493292 1.478803291933137 2.273158953874438
-1.8082230031759334 1.4958921625895443 2.2728671203952184
-1.8294937558726592 1.513488859565264 2.273031605695042
-1.851945971129704 1.5320629473723522 2.2743263499963815
-1.8744710496355346 1.5506973129010535 2.275358812376034
-1.8970672642604718 1.569390527345437 2.276127779522316
-1.9214397264144005 1.589553181539658 2.2786562273761755
-1.945326392774985 1.609313950502574 2.280223124361575
-1.955496064381235 1.6177270345221773 2.265523790770686
-1.9771553383507392 1.6356451442472801 2.263979960200904
-2.001189369850697 1.6555278242558136 2.2648146530510225
-2.0293825286594895 1.6788512336066748 2.2699326145340213
-2.055928775003366 1.7008121984778382 2.2727561549477735
-2.081389048129071 1.7218747681715305 2.2739672819037478
-2.1069291114569224 1.7430033460610224 2.274870875146856
-2.1170721106374897 1.7513943647311276 2.2589537182565236
-2.144486217394767 1.7740732861753177 2.2612471321047405
-2.174394931272758 1.7988159261066972 2.265707095615335
-2.200793464209981 1.820654691820492 2.2660626543500793
-2.226055261181183 1.84155306775962 2.26486231387257
-2.257471408481652 1.8675427650718364 2.269480893280953
-2.2908387065064346 1.895146594640642 2.275524794719873
-2.300981530738205 1.9035374685805155 2.258221598227854
-2.32894752717662 1.926672952875182 2.2581992300747036
-2.354510605691145 1.9478205705829406 2.255455513061852
-2.3832399708882095 1.9715875684360697 2.2553479170285273
-2.418924361169867 2.001108263425218 2.26131186002525
-2.454741771103686 2.030739001840862 2.2668133171474683
-2.4862762189783942 2.0568265658993394 2.267825188564746
-2.52106663117824 2.0856076979010907 2.2712888171009946
-2.5311866204991222 2.0939796811597975 2.2522505868949994
-2.5641898720417435 2.1212823452868808 2.253320425720287
-2.5953657190060424 2.1470732488723763 2.252300517150531
-2.628547026389812 2.174523213601658 2.2525389802805806
-2.6631083105918583 2.2031147944387928 2.253445080423027
-2.700357147679187 2.2339297123812387 2.2560707345911384
-2.7390185400333498 2.2659131976680724 2.259282611407206
-2.7758408749500165 2.296375282329833 2.260392698213277
-2.7859078158279145 2.3047033800998817 2.239434554064868
-2.823491399118334 2.3357952241851656 2.240308604889862
-2.863154812079001 2.3686076530090463 2.2422407615237816
-2.902929724913995 2.4015123225509374 2.2436498354557264
-2.9295266510297044 2.4235152133755666 2.2344006502010085
-2.993465275933333 2.476409844022396 2.2529186630538782
-3.018876908620462 2.497432174845814 2.241742668465245
-3.028856305411124 2.505687849848457 2.218953205740875
-3.0986467198865593 2.5634235018417755 2.2393880783865874
-3.132251216752461 2.5912235593574557 2.2328472600558698
-3.2004528373896375 2.647644846780449 2.2501675903616585
-3.228136684963832 2.6705469172351584 2.2382610897829847
-3.302177117077813 2.7317984895907346 2.2577063514268474
-3.3341041217719516 2.758210804893127 2.2475315691078666
-3.4065146354870826 2.8181139914831097 2.2638420097281178
-3.4165863762719115 2.8264460600815053 2.238130755499621
-3.446548760745298 2.8512331001907794 2.2252607893177956
-3.523556051106866 2.914939071142261 2.241948105036305
-3.5578107830445074 2.943277049891079 2.2305793887676897
-3.6206071864350426 2.9952267527240397 2.2363891122963726
-3.6856665565680586 3.0490485444577233 2.242599814216483
-3.7592962035664104 3.1099602858113156 2.2529349421442544
-3.8352445152501997 3.172790193411288 2.2634763501389688
-3.8453073913694826 3.1811149285205675 2.2345339935263477
-3.9102349372397254 3.2348276657398602 2.2369775928396036
-3.978139349241268 3.291003080796493 2.2401088350182996
-4.051870883292425 3.351999110450529 2.245432601313832
-4.126492364307009 3.413731368260812 2.2501066841251594
-4.204138250905925 3.477965631964255 2.2552583738684984
-4.2876776146229 3.547075403951699 2.2623274265906756
-4.297727721847981 3.5553895757130234 2.2299753422700315
-4.380060107764528 3.6235008488267626 2.2344969518224427
-4.466888171706028 3.6953312702486696 2.2400142323794783
-4.557512090688985 3.770301896057352 2.2460716689018825
-4.647616271323874 3.844842556911432 2.2504877938670513
-4.740081161286025 3.921336166364552 2.254652490881066
-4.837087189545852 4.0015865321341195 2.259530002083281
-4.847115516871264 4.0098826859954615 2.2230373578507137
-4.945064334124972 4.090912994650639 2.226122549973248
-5.051953976413033 4.179339797030585 2.231671463105106
-5.1714813175104455 4.278221413097157 2.24106705529995
-5.290526847438474 4.376704440300041 2.24842334553154
-5.410542843877431 4.475990307221922 2.254365077848332
-5.5344617268897895 4.578504922714291 2.2600728364340092
-5.544480724978275 4.586793358759647 2.218324442929069
-5.684871979372333 4.702935104979736 2.227661905701005
-5.83070202127038 4.823576207521981 2.2369408258578454
-5.975321996285721 4.943216255679412 2.2435392466336794
nan nan nan
-3.822895427909692 3.1625741398961225 1.3731339780982394
-3.8289748266641337 3.167603455934052 1.3442997015574465
-3.834925108848851 3.172525957456088 1.3154200939883747
-3.83253959012309 3.1705524847376743 1.2837472858359984
-3.8277585285274087 3.1665972466076004 1.2514219952948011
-3.8280555270602603 3.166842945161824 1.2208826470604761
-3.831954753878431 3.1700686661194797 1.1915459775561779
-3.8334701039166634 3.171322272694438 1.1615098406524695
-3.8280833586622194 3.166865969465336 1.129495724927152
-3.833072552002995 3.170993389149192 1.100626457571474
-3.8303999341964197 3.1687824074155064 1.069616654001216
-3.8343670216390016 3.172064267563974 1.0405262854241142
-3.835937466011546 3.1733634521360905 1.0108152068253402
-3.83359179336695 3.171422942962781 0.9801492154687597
-3.8311009210895244 3.169362314206666 0.9495526351150078
-3.8299813278453194 3.168436106124835 0.9193905232621238
-3.834030409180693 3.1717857975205503 0.890510494395299
-3.8364318366377357 3.1737724310860496 0.8612595710070443
-3.836420683823709 3.1737632046758866 0.8315082876239392
-3.837033813128563 3.174270429349046 0.8019452968203564
-3.8390342121253926 3.175925303319875 0.7727075380943333
-3.838616689472887 3.1755798985426487 0.7430242428395891
-3.835774370625733 3.1732285278988894 0.7129479157694216
-3.835846473176823 3.1732881763166394 0.6834836813769897
-3.838839930565757 3.175764579635968 0.6545634275348521
-3.8401746486327704 3.176868754448591 0.6253720564709176
-3.8375526093314845 3.1746996148934 0.5955890019808374
-3.8332626759537205 3.171150673359885 0.5656406618925482
-3.833430855072536 3.1712898032267796 0.5364202960596829
-3.8372993119740393 3.174490069095597 0.5077235583043563
-3.840273261371335 3.176950334000721 0.47889095594513836
-3.842351228755537 3.178669378122317 0.44994078928817327
-3.8404606154826335 3.177105326800961 0.42055505367898277
-3.839205195225879 3.1760667528421425 0.3912913229890683
-3.8401228010344655 3.1768258623850474 0.36227818886812996
-3.8401411577148985 3.176841048351791 0.3331976876666607
nan nan nan
-2.8488739193799844 2.356793471115707 0.20408683081612478
-2.8497390378768883 2.357509159378137 0.18261294581261564
-2.850508060539832 2.358145350253008 0.1611329029318109
-2.8496409591982754 2.357428021638823 0.13957199903658302
-2.840205823699857 2.3496225987345323 0.11767860992522133
-2.839144079750847 2.34874424775171 0.09621930442745874
-2.844919185297424 2.3535218305554233 0.07496265617259623
-2.852140382013774 2.359495724015208 0.0536511828183447
-2.860807793153244 2.366666030095101 0.03225076294695223
-2.8647563138889915 2.369932530527876 0.010704230723756498
-2.8647559070343407 2.369932193948437 -0.010886090900320403
-2.8600359625425167 2.3660275162838036 -0.03242363617264058
-2.8706288484804845 2.3747907136471706 -0.05418123797557719
-2.8849746018118774 2.3866585529220736 -0.07620132217912502
nan nan nan
nan nan nan
-3.8398090451573843 3.1765663009500544 -0.1883133512331081
-3.8389017281277433 3.175815703025329 -0.2172487699670214
-3.8378649597840857 3.1749580136601487 -0.24617686287163967
-3.832851986838795 3.170810921776591 -0.27482083438115934
-3.83001967506074 3.168467829700359 -0.3035804518960983
-3.832440840676653 3.1704707920909563 -0.33277393279883816
-3.8370350674934186 3.174271467049901 -0.36223176151074965
-3.839190443405449 3.1760545490749488 -0.3915350425820678
-3.837373855897596 3.1745517371922976 -0.4204623728327308
-3.8354278685969896 3.172941876491288 -0.44937552470360925
-3.834119468812285 3.171859474055285 -0.47836920925980697
-3.833447403340479 3.171303493144603 -0.5074597868339363
-3.834942660986253 3.172540477846953 -0.536878127223061
-3.8370693231099526 3.1742998057604517 -0.5664491098459367
-3.8382955250517137 3.175314208226968 -0.5959514508640256
-3.837093242322026 3.1743195934535695 -0.6251176724669038
nan nan nan
-3.3251411913617734 2.7507960240110827 -0.5926996090120442
-3.3224331943094345 2.7485557740199065 -0.6177494323604421
-3.3196131617393365 2.746222840187936 -0.6427784246270841
-3.226073997026992 2.6688405133717152 -0.6495427491049734
-3.206377917607995 2.652546499422733 -0.6703461823505527
-3.211684065723236 2.6569361268996468 -0.6963120427759784
-3.2031997844268267 2.6499173190013883 -0.7193116047454565
-3.199927339513412 2.6472101171297795 -0.7434402859795882
-3.20109295280852 2.6481743963086757 -0.7686354586928807
-3.21879095459729 2.662815456688295 -0.7980011182317774
-3.2265060649152417 2.6691979510144197 -0.8251460391470351
-3.070984766930155 2.540539544190132 -0.8094440512030174
-3.067311268914815 2.5375005623384554 -0.8325747786589632
-3.0062861114358035 2.4870161615575173 -0.8396873977456365
-3.0024783855572723 2.4838661367602546 -0.8623300160089602
-2.923436198575495 2.4184767529219195 -0.8627700972828668
-2.8572494006972975 2.3637222718435367 -0.8659142867620667
-2.788137815502686 2.3065481962703482 -0.86715835553414
-2.7221067553304468 2.251922552627034 -0.8683453879772153
-2.6651270149288364 2.2047848119039877 -0.8714988821397639
-2.5947837065943937 2.1465917663320115 -0.8693243280126888
-2.522317175506515 2.086642238141067 -0.8653529226495906
-2.5184027735401 2.0834039632089927 -0.8843476923124223
-2.4512836038278825 2.02787815706911 -0.8806365052677323
-2.3865086803416173 1.9742916800664092 -0.8767612739444726
-2.296687899918155 1.8999854682567252 -0.8624896805988996
-2.2676677535882166 1.8759779153299512 -0.8701441579717576
-2.1936628924473354 1.8147557698425116 -0.8597560549272029
-2.1691625483428583 1.7944873224982059 -0.8680240046456367
-2.165242149424363 1.791244086455914 -0.8843571911134062
-2.100358025463541 1.7375672709641254 -0.8752854752594379
-2.07517144606553 1.7167311204131424 -0.8820738952427764
-2.0149152802958654 1.6668828849000323 -0.873307902737433
-1.9912798994361414 1.6473299973824078 -0.8797774411559444
-1.9348973227956636 1.6006862734860976 -0.8711714891762132
-1.9149843178413377 1.584212803127373 -0.8784078918365655
-1.9110217435473924 1.5809346765801604 -0.8928252974054708
-1.8549068387604428 1.5345123900990003 -0.8824328793976505
-1.8213298359628287 1.506735077654695 -0.8820635147317889
-1.8043869114618083 1.4927186715322713 -0.8893842896933012
nan nan nan
nan nan nan
nan nan nan
nan nan nan
-0.36671535130191973 0.30337332228951835 -0.196747207625068
-0.36582885638021484 0.3026399499105448 -0.19950762848427392
-0.3649300253713899 0.3018963722327738 -0.20226132176187117
-0.35765739090852755 0.29587992576833516 -0.20142552569408606
-0.3567501163693837 0.29512936299480635 -0.20411760265597084
-0.35512759796742766 0.29378709903904404 -0.20639410065225386
-0.35139259954328406 0.29069723962449867 -0.2074110483088056
-0.3504586494280794 0.2899246088952521 -0.21005580995923276
-0.347419996117566 0.28741081625792797 -0.21141987834335402
-0.3422938730190799 0.2831701184269489 -0.21145591005239645
-0.3371792628933908 0.2789389449553796 -0.21142187931315556
-0.33346029563575896 0.2758623476751506 -0.2121984682656127
-0.33112553481554147 0.273930865548029 -0.2138170965885254
-0.32603623488629974 0.26972063049192757 -0.2136051534556371
-0.3202743127594361 0.26495395396149524 -0.21286797314884007
-0.3193164712304634 0.26416155853588874 -0.21527812085455733
-0.3142577314082439 0.25997660499899283 -0.2148842454130247
-0.3085338405993918 0.25524139071101976 -0.2139502236716487
-0.3035065469273671 0.2510824516919888 -0.21341366126540007
-0.3025465465219695 0.25028827028848116 -0.21569743005832698
-0.30157634396742294 0.24948564893319397 -0.21797392533457421
-0.2999249874907796 0.248119528047267 -0.21975144802561922
-0.2989366901227607 0.2473019373604265 -0.2220081176563765
-0.29793831233328666 0.24647600742371262 -0.2242573009682364
-0.2956013397277602 0.2445426955486544 -0.22548550205983395
-0.2912774908601656 0.24096569668186854 -0.22515095878708655
-0.2876264003735338 0.23794525195007105 -0.22527561282779124
-0.2852988494788402 0.23601973439206791 -0.22639619881915207
-0.2829710337248278 0.2340939977233807 -0.22748934916670274
-0.2812957309200911 0.23270806671201302 -0.22908658302241416
-0.27896543833616233 0.23078028103142106 -0.23012982795344541
-0.27793105805927343 0.22992456724688362 -0.23222836165140853
-0.27688730569025505 0.2290611001934524 -0.23431906439440156
-0.2706904634344085 0.2239346264415738 -0.2319934466706183
-0.26516442822362096 0.21936309253923314 -0.2301383570534584
-0.26413024247613165 0.2185075396834107 -0.23213287975167088
-0.26308715001276856 0.21764461855141506 -0.23411957471465122
-0.26076931299226 0.21572713700901194 -0.2349578007905963
-0.2603440023569834 0.21537528945212384 -0.23749415759046832
-0.25927698560516194 0.2144925764274593 -0.23945222728648086
-0.25882642096157654 0.21411983693797398 -0.2419867413572018
-0.25151374685510647 0.20807026679965196 -0.23804119513797972
-0.2436253954677408 0.20154445499691134 -0.23339988129881512
-0.242576979742554 0.20067713007974788 -0.2352320207987268
-0.24213493185955787 0.20031143626736866 -0.23765941679039643
-0.24229117800158964 0.200440694317338 -0.24069588992074173
-0.2412101400217449 0.1995463819240817 -0.24251785112080118
-0.2346636714274117 0.19413067211079998 -0.2387786406144597
-0.2281589816104181 0.18874952470794834 -0.23494912079847427
-0.2271038948473613 0.18787668102830454 -0.2366646720613428
-0.22604114993109087 0.18699750197334916 -0.23837224277275443
-0.2261611067399606 0.18709673887605546 -0.2413419989892743
-0.22566976892772472 0.18669026888799722 -0.243681981607294
-0.22221789611921824 0.18383463135245462 -0.24280246707128986
-0.22112777106286152 0.18293280147572902 -0.24447311112893694
-0.21769564684944182 0.18009350139887406 -0.2435239887014674
-0.21892518806322667 0.18111066635145523 -0.24778961160884458
-0.2195460576682055 0.18162429435776123 -0.2514202470713763
-0.21841741886878221 0.18069060314186228 -0.25307060960721334
-0.21556604026390422 0.17833173761470061 -0.2527015565846632
-0.21329416438575902 0.1764522784359795 -0.25297271171755337
-0.21159293554822625 0.17504489954500926 -0.2538970704824401
-0.21045334871685 0.17410215132941204 -0.2554874528162544
-0.20874701225999065 0.17269054704826223 -0.25638185741014285
-0.20870947511192126 0.1726594936187326 -0.25933386639972256
-0.20754561087800075 0.17169666138908943 -0.26090242596250013
-0.20307274535436243 0.16799638522327595 -0.2582627841415728
-0.19917781212961524 0.16477421623500652 -0.25626870944141533
-0.19802782312763814 0.16382286259549397 -0.2577654856215555
-0.19470774883337677 0.16107625827330718 -0.25640464477967695
-0.19355722697917171 0.1601244638200951 -0.25786773018379644
-0.17743570608822534 0.14678758186060603 -0.2391526032182429
-0.16361356367467808 0.13535291120864212 -0.22310130026729244
-0.16261257623590578 0.13452482238227495 -0.2243306068838539
-0.16160610535078343 0.13369219725457515 -0.22555234886503475
-0.16007278197713357 0.13242372184345075 -0.2260302396660963
-0.15905874919618723 0.1315848409714774 -0.2272328119153105
-0.15803935280722295 0.13074152293706162 -0.22842772166410838
-0.15803751057254595 0.13073999890799543 -0.23111077203295047
-0.15801696851522432 0.1307230050402607 -0.23380146939115462
-0.157472928809059 0.130272936253855 -0.2357440196250423
-0.15641547720585655 0.12939813620830198 -0.2369268343880831
-0.14589217020666603 0.12069249954901591 -0.22360188422686508
nan nan nan
nan nan nan
-0.12726534540482073 0.10528304994790502 -0.20208912665145573
-0.12635898621235847 0.10453324441500672 -0.2030448503989869
-0.12544836607810572 0.10377991392450174 -0.2039937272865175
-0.11928497335487119 0.09868111203255893 -0.19629858190966437
-0.1184046575231631 0.0979528514413914 -0.19719425947862468
-0.11752034897697897 0.09722128778954957 -0.1980832874749171
nan nan nan
nan nan nan
nan nan nan
-0.11394378603993267 0.09426249760872625 -0.20157230754111766
-0.11303996387436145 0.0935147908870011 -0.20242764251120327
-0.11213232989674185 0.09276393076010497 -0.2032761514341087
-0.11033114559245871 0.0912738615156456 -0.20248485994249787
nan nan nan
-0.10851176710689454 0.08976874073543248 -0.2041341901195592
-0.10759657381962222 0.08901162700372975 -0.2049485436642135
-0.10667775227644466 0.08825151171770382 -0.20575598615457108
-0.10660820079562 0.08819397372881674 -0.2082222719140331
-0.1048293484777236 0.08672237911019294 -0.20735002929553328
-0.10348087677460814 0.0856068263002678 -0.20729731409112695
-0.10255161545002493 0.0848380744759629 -0.2080736991655658
-0.10244172274669733 0.08474716332543289 -0.21053410825743973
-0.10109037315240184 0.08362922971687095 -0.21045400063321568
-0.10014702807555148 0.0828488267994214 -0.21121231653302971
-0.09880030389753724 0.08173471966798737 -0.21110881683906763
-0.09745790234526704 0.08062418852356434 -0.21099218193687297
-0.09690453150992248 0.08016640035576444 -0.21258376472224527
-0.09517479486923462 0.0787354377590027 -0.2115832970699706
-0.09384189796926828 0.07763276954678687 -0.21143049121644208
-0.09289430596395788 0.07684885326456578 -0.2121341627588562
-0.09194358147680157 0.0760623455679923 -0.21283068094125704
-0.09248138937001613 0.07650725895037126 -0.21702034452499347
-0.09150880945521392 0.0757026708716391 -0.21771366839186784
-0.08980304172875173 0.07429153708519166 -0.2166383727710514
-0.0891933179499916 0.07378712970823108 -0.21819488655588057
nan nan nan
nan nan nan
-0.0862510875984269 0.07135310507979288 -0.220178294298511
-0.0852644830200144 0.07053691479030422 -0.2208246104577935
-0.08427500324443678 0.06971834593086172 -0.22146348020713497
-0.08227115404116116 0.0680606177010325 -0.21939738118057495
-0.08062181329768564 0.06669616437460583 -0.2182103211207903
-0.07898589187856726 0.06534281247875372 -0.21700585975174283
-0.07768854696309166 0.06426955542593073 -0.21669081748710595
-0.07575471010955465 0.06266974644891186 -0.21454539718075485
-0.07257503533123241 0.06003929070748964 -0.20873224188125156
-0.07163987475297268 0.059265658596115975 -0.2092756819109865
-0.07070229841192986 0.05849002799196373 -0.20981206497132404
-0.07128553160832002 0.05897252045329716 -0.21493397494888009
-0.07032264417143741 0.05817595068963484 -0.21546759211240038
-0.07113577909444455 0.058848634399729136 -0.2215322472846623
-0.07014337133466755 0.05802764330110023 -0.22206462459339757
-0.06914859827558571 0.057204695456712605 -0.2225895136777692
-0.06815149346186597 0.05637981861712815 -0.22310689683803223
-0.06715209051680406 0.05555304059795617 -0.2236167566275483
-0.06587479581336829 0.05449637052306453 -0.22318524445731946
-0.06378930710301482 0.0527711042193468 -0.21993438698540588
-0.06226966788157227 0.05151394932344792 -0.2185355790724026
-0.060764719094659 0.05026894741190926 -0.21712135938992713
-0.059533380658401996 0.04925029566759623 -0.2166337621039383
-0.058817708583826324 0.048658240237783854 -0.21802260359374256
-0.057090025745223344 0.047228976693869516 -0.21562502817441925
-0.05612428565095765 0.0464300470067827 -0.21605164972634922
-0.05491473735907352 0.04542942163760803 -0.21552154974507798
-0.05394949693781484 0.04463090531598207 -0.2159317790527746
-0.05391605041929728 0.04460323594952205 -0.2201468003717044
-0.052930131938774126 0.04378761324956944 -0.2205494251244698
-0.051042990813498446 0.04222643433853794 -0.2171187243558924
-0.04918836833256194 0.040692157189689306 -0.21366715925450716
-0.04823152161551531 0.039900584744080765 -0.21403426323743963
-0.04557715413005219 0.03770470098905563 -0.2067028787475666
-0.042782394363497164 0.035392674638452075 -0.19837596984688274
-0.04189407348147366 0.03465779169373251 -0.19869505323553274
-0.040009089874606475 0.033098397637153276 -0.19417716347188776
nan nan nan
nan nan nan
nan nan nan
-0.03670504784375837 0.03036505635671873 -0.19630258698426106
-0.035826106427727385 0.029637932781082968 -0.19657590361019794
-0.03494595692227874 0.02890980978696376 -0.19684259151499833
-0.03473917494655231 0.028738744859512527 -0.201005657547645
-0.03383922358638219 0.027994240346504013 -0.20126407914161298
-0.032298556861657314 0.026719689987045832 -0.19760279409239923
-0.0314138721854439 0.02598781517338273 -0.19784287942279694
-0.030528128204429076 0.025255064026575194 -0.19807629330846285
-0.029641354786718446 0.024521461255669057 -0.19830302787846504
-0.028468892339044347 0.023551515965002056 -0.19655749656736846
-0.027588949238808596 0.022823563724124977 -0.19676873738203982
-0.02670807581370803 0.02209484185158659 -0.19697334297304167
-0.02569716999900228 0.021258547831060078 -0.19618544792547504
nan nan nan
-0.02406017077872316 0.01990430430054435 -0.1975472805292518
-0.023175873391506296 0.01917274988020308 -0.19772527847158275
-0.022290794492420545 0.018440548937017236 -0.19789660893479466
-0.02183306247208196 0.018061880077817824 -0.20202248467620681
-0.02103137135902982 0.017398663510654343 -0.20317472085292618
-0.02012194601376627 0.016646321435561478 -0.20332979746742955
-0.019024409150186085 0.01573835997865097 -0.20149286218156498
-0.018033270370698344 0.014918418671815366 -0.20063958927774547
-0.0172200654087698 0.014245677020486265 -0.20176602207010996
-0.01607586997020147 0.013299116233449017 -0.19890877583506286
-0.015185615422708224 0.012562633621533436 -0.19902657740316398
-0.014008951251057894 0.011589212362496179 -0.19515490624698803
-0.013135527604043995 0.010866653482372616 -0.19525719384254625
nan nan nan
-0.011387380951214918 0.009420460799041441 -0.19544201304738415
-0.010512716894520439 0.008696875762787621 -0.19552453842438944
-0.009637698339296884 0.007972997459845808 -0.19560047053326393
-0.008717648808414509 0.007211866294041684 -0.19467148942336854
-0.007846477341596145 0.006491170579411162 -0.19473390744382316
-0.007046580316879473 0.00582943821119621 -0.196787606659565
-0.006165968818236789 0.00510093302306834 -0.19683739504892547
-0.005285149397427239 0.004372255826764877 -0.1968805458994165
-0.004471220194329044 0.0036989150310340092 -0.19991580080038676
nan nan nan
nan nan nan
nan nan nan
nan nan nan
2.5199624496064147e-06 -2.0846942394634597e-06 -0.20100000498018278
0.000901860270138084 -0.0007460837006723933 -0.20099659703560754
0.0018011701662647933 -0.001490057548473439 -0.2009864113000281
0.0027138542741771883 -0.002245095506484277 -0.20196929811884273
0.003653302300495019 -0.003022274503356228 -0.20394488883698728
0.00461051985582142 -0.003814153733070114 -0.20591307738020925
0.0055854717444953975 -0.004620704079242973 -0.20787364764318214
0.006515472866541363 -0.005390067917234523 -0.20782804807448704
0.007660021128656277 -0.00633692058529374 -0.21376895980727584
nan nan nan
0.009706610389532863 -0.00803000646574548 -0.21663401753870332
0.010675738813019791 -0.008831739222540746 -0.21655721144112133
0.011644507240727898 -0.009633174164927524 -0.21647310283423696
0.012380387852786537 -0.01024194755086869 -0.2123930985315841
0.013142742079420624 -0.010872621815456611 -0.20930611952773226
0.014146068249098582 -0.011702645408291202 -0.21019975007573033
0.01508633278540446 -0.01248049988096987 -0.21008959463564347
0.01617799496078297 -0.013383601373139797 -0.21196261814339135
0.01736732623832445 -0.014367501773517463 -0.214820746885735
0.018413064067541868 -0.015232611342471187 -0.21568014156937848
0.019377777740340895 -0.01603069189987389 -0.21553773565459622
0.02006061522758294 -0.01659558419672757 -0.21241035512691156
0.021108851922320468 -0.01746276100702284 -0.21324743817062142
0.022062635425117934 -0.018251799341418542 -0.21308475655639653
0.022694525357107677 -0.01877454415509611 -0.20994397812069876
0.023187586986679318 -0.0191824402088762 -0.20581149526361836
0.02410806457869391 -0.01994392549764617 -0.20563327270481352
0.025027729224491303 -0.020704738258817062 -0.20544811600201585
0.026071293190778642 -0.02156804945195434 -0.20624284122160738
0.027381119686362223 -0.022651632165842078 -0.20900042292661752
0.028582925573118118 -0.023645852460459797 -0.21076026829167838
0.02952545464080185 -0.02442558031641814 -0.21054130050358447
0.03174831047751697 -0.02626448659007373 -0.21916026945102096
nan nan nan
0.03506771061329963 -0.029010533199863943 -0.22749206917663597
0.03608499394298933 -0.0298521031596217 -0.22722394691481704
0.037101060453335104 -0.030692666478872907 -0.22694816245151778
0.03811587588163523 -0.031532194813045644 -0.2266647250864452
0.03896074694117856 -0.03223113293856988 -0.22539790844452326
0.03996859466631032 -0.03306489708738356 -0.2251004817517833
0.04062033118013923 -0.03360406042144012 -0.22284917949314825
0.04143501418298868 -0.03427802481455808 -0.22156749912572354
0.04447253334029092 -0.03679087919874817 -0.2319258964695262
0.04969865812528271 -0.041114305619523304 -0.2529044505580323
0.05082939815055657 -0.042049735120620574 -0.252525634180032
0.05195842416155052 -0.04298374666578907 -0.2521383024042741
nan nan nan
nan nan nan
nan nan nan
0.05580769624755958 -0.04616814147495932 -0.2476247094696351
0.05691470996773915 -0.04708394286947049 -0.24719994154688935
0.05801980447130054 -0.04799815654991521 -0.24676683781366332
nan nan nan
nan nan nan
nan nan nan
nan nan nan
nan nan nan
nan nan nan
nan nan nan
nan nan nan
nan nan nan
nan nan nan
nan nan nan
nan nan nan
0.06827699475602789 -0.05648364231697155 -0.22734082668033656
0.06929304145300477 -0.05732418924517852 -0.22682242629771024
0.07030675152458629 -0.058162803148747666 -0.2262963772532499
nan nan nan
nan nan nan
0.07243187709216288 -0.059920859912472604 -0.22191014424628516
0.07342355507062547 -0.0607412472834934 -0.22136052229426043
0.07441275713895627 -0.06155958640352141 -0.22080343586085233
0.07477372708735162 -0.061858206715168014 -0.21841119125759867
0.07765138038611291 -0.06423880855946838 -0.22331287677940398
nan nan nan
nan nan nan
nan nan nan
0.08362581626139363 -0.06918129175209962 -0.22632203883642402
0.08463704577714462 -0.07001785356141974 -0.22568797974575083
0.08564542125349417 -0.07085205430401036 -0.2250463102478297
0.08699613729240413 -0.07196946378997562 -0.2252910793190777
0.0897487806971323 -0.07424664845597338 -0.22908860990627997
0.0907722855287796 -0.07509336528976247 -0.22840835865111975
0.08857819685294605 -0.0732782572812695 -0.219745757733239
0.08955991841751239 -0.07409040799039143 -0.21907448606928287
0.08907832207406129 -0.0736919968461714 -0.21487331959854564
0.09003823431021717 -0.07448610530973887 -0.21419836090897149
0.09099511037390275 -0.07527770203299852 -0.21351617925271477
0.09270259917300361 -0.0766902596145569 -0.2145712830970786
0.09784919383401414 -0.08094789299490263 -0.22343225711180978
nan nan nan
nan nan nan
nan nan nan
0.10697179823305648 -0.08849476768843544 -0.23157227007594772
0.1080061253918507 -0.0893504375298633 -0.23076217624349404
0.10903681048428215 -0.09020309439196388 -0.2299443008971972
0.11903197528501606 -0.0984718138269826 -0.24778758692701963
nan nan nan
nan nan nan
nan nan nan
0.132311343752379 -0.10945746282026342 -0.2616902140272725
0.1334800012945709 -0.11042426041936795 -0.26068864174621453
0.13464415776776284 -0.11138733441036189 -0.2596782788032399
0.1358037739155227 -0.11234665231750028 -0.25865915926872085
0.13870908655792474 -0.11475013596083866 -0.26092373725159007
0.14296291131049177 -0.11826920584172064 -0.2656125026371653
0.14637345740953658 -0.12109065494990627 -0.2686128473094884
0.1502641557018058 -0.1243093204973436 -0.27238370351331215
0.15464561753558595 -0.12793398095477904 -0.2769144898928285
0.16135155877848248 -0.13348161801636713 -0.2854195747503835
0.16262589967954577 -0.13453584449342207 -0.2841987417619284
0.1671356131047939 -0.1382666038945053 -0.28856374358604703
0.16842392453294208 -0.139332387796688 -0.2872992662514551
0.1678261476886731 -0.1388378637834723 -0.28285584131418867
0.16908890843577687 -0.1398825103240265 -0.2815862560264295
0.17320893063853937 -0.14329088910915563 -0.28501822998972326
0.17784592817803535 -0.14712694708712404 -0.28917899439604994
0.18155757724849525 -0.15019749023641032 -0.2917234307873471
0.18285978299886615 -0.1512747685215762 -0.29035020952351853
0.18562906479667493 -0.15356571766339563 -0.29127892816369966
0.18742374315877233 -0.15505040472440262 -0.29064190792051503
0.18772511967610656 -0.15529972506236814 -0.2876982410342366
0.1880065080035849 -0.15553250973161506 -0.2847598837000799
0.1897821811769504 -0.15700147433315625 -0.2840937364378753
0.19155823110101025 -0.15847075060997753 -0.2834104238637168
0.19282307309955465 -0.15951711891146106 -0.2819619731642548
0.19408141292587558 -0.16055810814827623 -0.2805040144464809
0.19533320814759114 -0.1615936832173039 -0.2790365968741104
0.19762127497644277 -0.16348653671532307 -0.2790322385209964
0.20148999036128243 -0.16668701642015302 -0.2811996175399862
0.2059126507646203 -0.17034575929839774 -0.28404628388019887
0.2093050242321506 -0.17315217469834693 -0.28538697647876676
0.20950948263420058 -0.17332131739848125 -0.28236410817247554
0.21076934040467343 -0.17436356238790884 -0.28078038610132594
0.2120220908382041 -0.17539992767687362 -0.27918719585607216
0.21598795655128697 -0.1786807771228012 -0.2811252287655116
0.21450610095991998 -0.17745487956408085 -0.2759726260561057
0.21353588798332232 -0.17665224958692316 -0.2715518663895883
0.21474730032907738 -0.177654417035571 -0.26993798174717804
0.21817776288299562 -0.18049234246813667 -0.27108111342579577
0.2205063143390556 -0.18241868776248846 -0.27080691055971506
0.221714275981991 -0.1834180005414997 -0.2691405060900721
0.22461209362860945 -0.18581528378509113 -0.26950157595923047
0.22524533456695126 -0.1863391462484226 -0.26712966913426806
0.22414951843713207 -0.18543260830627906 -0.26274651876583416
0.22647095490491007 -0.18735306757042922 -0.2623846980517129
0.23226329663203288 -0.19214490938276366 -0.26596635668224755
nan nan nan
0.23696222547212115 -0.19603220138828967 -0.26505899387110476
0.23814419158477382 -0.19701000879437736 -0.2632686668843743
0.2393181272552038 -0.19798117284090047 -0.26146946223489514
0.23811470525754666 -0.19698561558307257 -0.2571032136018302
0.23688034337082634 -0.19596446262301118 -0.2527639883995412
0.23621327936979145 -0.19541261928878687 -0.24908272390482059
0.23612213323651743 -0.1953372166497454 -0.24604616484408542
0.2366154228363303 -0.1957453012969106 -0.2436409461863897
0.2383079552029211 -0.19714548584144156 -0.24247057789855786
0.23938883059894694 -0.19803966373366563 -0.24067048971538127
0.2459683904986754 -0.2034827490555564 -0.24433241652143345
0.2519740252539825 -0.20845104220637925 -0.24729992047679916
0.25307627830608 -0.20936290523374204 -0.24539675698403637
0.25416999739219104 -0.21026770835045638 -0.24348531848584326
0.2546325801151246 -0.21065039005983083 -0.24097649245846656
0.2550812854152925 -0.21102159136666895 -0.23846890695093725
0.2561439732088913 -0.2119007231656406 -0.2365424745897773
0.25971957799910605 -0.21485872069847003 -0.23690814957847472
0.26140814562059156 -0.21625562532060247 -0.23551703904355656
0.2592800702389742 -0.2144951282584758 -0.23071558010820747
0.26413606289473884 -0.21851235475243824 -0.23212172420911453
0.27221578827516685 -0.22519648489082808 -0.2362416515759537
0.27326822169761134 -0.22606713353622018 -0.23418612315363965
0.27624775056395223 -0.2285320141795592 -0.23376120605547898
0.2772890176738698 -0.22939342524785786 -0.23167533270427756
0.2815723440018861 -0.23293690095447098 -0.2322636730565439
0.2832594841212725 -0.23433262464416402 -0.23066918532595804
0.284286798289044 -0.23518249283486145 -0.22853052040976501
0.28530452604325185 -0.23602443045455518 -0.226384149233226
0.2929097119335811 -0.24231598738553023 -0.2293967480012279
0.3018752520350875 -0.24973292719199772 -0.2333255183264499
0.3029141376428163 -0.2505923681103463 -0.231046511504492
0.30394280870588386 -0.2514433588224558 -0.22875971358064326
0.30629878250321235 -0.25339238985043183 -0.22745847210860734
0.3086533160619686 -0.2553402294094416 -0.2261293996944283
0.31100623962902557 -0.2572867370674854 -0.2247724745081475
0.31538339474339 -0.260907834696769 -0.22483198891579695
0.3211264225188202 -0.2656588804603231 -0.22578570935166728
0.3255292536039632 -0.2693012190999174 -0.22571787810226707
0.32653370130149095 -0.2701321705012788 -0.22326073194868298
0.3275271379808429 -0.2709540127962067 -0.22079605723688991
0.33193864512550253 -0.27460352889644074 -0.2206028903962645
0.3432378809818096 -0.2839510697312898 -0.22485675419348086
0.3442381771511673 -0.28477858668986317 -0.2222661620747068
0.3507615756077936 -0.2901752112254303 -0.22318981464596777
0.3517542864865752 -0.290996453085908 -0.22054254855702504
0.35203937336310637 -0.29123229746102713 -0.21745806644728755
0.3530064169647697 -0.29203230550321535 -0.2148012669177759
0.3532620370770792 -0.2922437728509554 -0.2117179859481386
0.34718945541411245 -0.2872200964015561 -0.20491242761975356
0.3438810395862318 -0.28448313680153914 -0.19984035693591728
0.344769393295159 -0.2852180469030352 -0.19724533946162467
0.34988718642051353 -0.2894518535809318 -0.19703194146632041
0.370604003081921 -0.3065902948147693 -0.20538759947994664
0.3715167264230094 -0.30734536522928607 -0.20259109174663667
0.40018795531530177 -0.33106426854843496 -0.2146858734261875
0.40114178340325385 -0.33185334376687825 -0.21166625044280496
0.4020820846195521 -0.3326312285838856 -0.20863948987784492
0.4151995002584107 -0.3434828985455739 -0.21182509052158494
0.4161402751580349 -0.34426117522750804 -0.2086923817606921
0.4206686290156166 -0.3480073553353216 -0.20732769995736797
0.42592057199723954 -0.3523521404258653 -0.20625131403247976
0.4268362272193404 -0.3531096363032925 -0.20303790024570592
0.4393371738745502 -0.363451318769246 -0.20523643450875242
0.44823934707256646 -0.37081583691415293 -0.20558716599884352
0.4491516543723421 -0.3715705631493632 -0.2022055587002338
0.4493194106225836 -0.37170934318894955 -0.19849490500153938
0.45385418363886315 -0.3754608336866706 -0.1966889226491202
0.46424582712552287 -0.3840575488157318 -0.19731096124290098
0.4827279237588844 -0.39934726886326405 -0.2011454708279693
0.4836197759554132 -0.40008507316540626 -0.1975040164016523
0.5102663673176286 -0.42212905065515954 -0.20416739395016198
0.511171276284526 -0.4228776564571326 -0.20031834600437437
0.528314754149493 -0.43705997475122 -0.20269943639581658
0.5292127906857399 -0.43780289518411525 -0.1987143921304544
0.5323171636708371 -0.440371055864521 -0.19553967087545765
0.5302127121560241 -0.4386301021646569 -0.1904575918080424
0.5310559426394558 -0.43932768308758874 -0.18645845004813644
